-7.9887E+02 -7.9888E+02 -7.9890E+02 -7.9891E+02 -7.9893E+02 -7.9894E+02 -7.9896E+02 -7.9897E+02 -7.9898E+02 -7.9900E+02 -7.9901E+02 -7.9903E+02 -7.9904E+02 -7.9905E+02 -7.9906E+02 -7.9907E+02 -7.9908E+02 -7.9909E+02 -7.9910E+02 -7.9911E+02 -7.9911E+02 -7.9911E+02 -7.9911E+02 -7.9910E+02 -7.9909E+02 -7.9908E+02 -7.9906E+02 -7.9904E+02 -7.9902E+02 -7.9899E+02 -7.9896E+02 -7.9893E+02 -7.9889E+02 -7.9886E+02 -7.9882E+02 -7.9878E+02 -7.9874E+02 -7.9870E+02 -7.9867E+02 -7.9863E+02 -7.9860E+02 -7.9857E+02 -7.9854E+02 -7.9852E+02 -7.9850E+02 -7.9849E+02 -7.9848E+02 -7.9847E+02 -7.9847E+02 -7.9847E+02 -7.9848E+02 -7.9849E+02 -7.9850E+02 -7.9851E+02 -7.9853E+02 -7.9855E+02 -7.9857E+02 -7.9858E+02 -7.9860E+02 -7.9861E+02 -7.9862E+02 -7.9863E+02 -7.9863E+02 -7.9863E+02 -7.9862E+02 -7.9861E+02 -7.9859E+02 -7.9856E+02 -7.9854E+02 -7.9850E+02 -7.9847E+02 -7.9842E+02 -7.9837E+02 -7.9831E+02 -7.9824E+02 -7.9815E+02 -7.9805E+02 -7.9792E+02 -7.9777E+02 -7.9758E+02 -7.9736E+02 -7.9708E+02 -7.9675E+02 -7.9636E+02 -7.9590E+02 -7.9536E+02 -7.9473E+02 -7.9401E+02 -7.9319E+02 -7.9225E+02 -7.9119E+02 -7.9001E+02 -7.8870E+02 -7.8724E+02 -7.8564E+02 -7.8389E+02 -7.8197E+02 -7.7989E+02 -7.7764E+02 -7.7521E+02 -7.7262E+02 -7.6984E+02 -7.6689E+02 -7.6376E+02 -7.6047E+02 -7.5702E+02 -7.5341E+02 -7.4966E+02 -7.4578E+02 -7.4179E+02 -7.3770E+02 -7.3352E+02 -7.2929E+02 -7.2502E+02 -7.2074E+02 -7.1646E+02 -7.1220E+02 -7.0800E+02 -7.0387E+02 -6.9984E+02 -6.9593E+02 -6.9216E+02 -6.8855E+02 -6.8512E+02 -6.8189E+02 -6.7887E+02 -6.7607E+02 -6.7350E+02 -6.7117E+02 -6.6909E+02 -6.6725E+02 -6.6564E+02 -6.6427E+02 -6.6313E+02 -6.6219E+02 -6.6146E+02 -6.6091E+02 -6.6053E+02 -6.6031E+02 -6.6021E+02 -6.6023E+02 -6.6035E+02 -6.6056E+02 -6.6084E+02 -6.6118E+02 -6.6157E+02 -6.6200E+02 -6.6248E+02 -6.6300E+02 -6.6356E+02 -6.6418E+02 -6.6485E+02 -6.6561E+02 -6.6644E+02 -6.6739E+02 -6.6845E+02 -6.6965E+02 -6.7101E+02 -6.7252E+02 -6.7420E+02 -6.7604E+02 -6.7804E+02 -6.8018E+02 -6.8244E+02 -6.8479E+02 -6.8718E+02 -6.8958E+02 -6.9195E+02 -6.9423E+02 -6.9635E+02 -6.9835E+02 -7.0016E+02 -7.0174E+02 -7.0301E+02 -7.0383E+02 -7.0502E+02 -7.0578E+02 -7.0616E+02 -7.0580E+02 -7.0398E+02
-7.9889E+02 -7.9891E+02 -7.9892E+02 -7.9894E+02 -7.9895E+02 -7.9896E+02 -7.9897E+02 -7.9898E+02 -7.9900E+02 -7.9901E+02 -7.9902E+02 -7.9903E+02 -7.9904E+02 -7.9905E+02 -7.9906E+02 -7.9907E+02 -7.9908E+02 -7.9908E+02 -7.9909E+02 -7.9909E+02 -7.9909E+02 -7.9909E+02 -7.9908E+02 -7.9908E+02 -7.9907E+02 -7.9905E+02 -7.9903E+02 -7.9901E+02 -7.9899E+02 -7.9896E+02 -7.9893E+02 -7.9890E+02 -7.9886E+02 -7.9882E+02 -7.9879E+02 -7.9875E+02 -7.9871E+02 -7.9867E+02 -7.9864E+02 -7.9860E+02 -7.9857E+02 -7.9855E+02 -7.9852E+02 -7.9850E+02 -7.9848E+02 -7.9847E+02 -7.9846E+02 -7.9846E+02 -7.9846E+02 -7.9846E+02 -7.9847E+02 -7.9848E+02 -7.9850E+02 -7.9852E+02 -7.9854E+02 -7.9856E+02 -7.9858E+02 -7.9860E+02 -7.9862E+02 -7.9863E+02 -7.9865E+02 -7.9866E+02 -7.9866E+02 -7.9866E+02 -7.9866E+02 -7.9864E+02 -7.9863E+02 -7.9860E+02 -7.9858E+02 -7.9854E+02 -7.9850E+02 -7.9845E+02 -7.9840E+02 -7.9833E+02 -7.9826E+02 -7.9817E+02 -7.9806E+02 -7.9792E+02 -7.9776E+02 -7.9757E+02 -7.9733E+02 -7.9705E+02 -7.9671E+02 -7.9631E+02 -7.9583E+02 -7.9528E+02 -7.9464E+02 -7.9390E+02 -7.9306E+02 -7.9211E+02 -7.9103E+02 -7.8983E+02 -7.8850E+02 -7.8702E+02 -7.8540E+02 -7.8362E+02 -7.8168E+02 -7.7957E+02 -7.7729E+02 -7.7484E+02 -7.7220E+02 -7.6939E+02 -7.6640E+02 -7.6323E+02 -7.5990E+02 -7.5639E+02 -7.5274E+02 -7.4893E+02 -7.4500E+02 -7.4094E+02 -7.3679E+02 -7.3255E+02 -7.2826E+02 -7.2392E+02 -7.1957E+02 -7.1522E+02 -7.1090E+02 -7.0663E+02 -7.0244E+02 -6.9835E+02 -6.9438E+02 -6.9056E+02 -6.8690E+02 -6.8343E+02 -6.8016E+02 -6.7710E+02 -6.7428E+02 -6.7169E+02 -6.6936E+02 -6.6726E+02 -6.6542E+02 -6.6383E+02 -6.6247E+02 -6.6134E+02 -6.6044E+02 -6.5973E+02 -6.5921E+02 -6.5887E+02 -6.5867E+02 -6.5861E+02 -6.5867E+02 -6.5883E+02 -6.5907E+02 -6.5939E+02 -6.5976E+02 -6.6019E+02 -6.6066E+02 -6.6117E+02 -6.6172E+02 -6.6232E+02 -6.6297E+02 -6.6369E+02 -6.6448E+02 -6.6537E+02 -6.6636E+02 -6.6748E+02 -6.6875E+02 -6.7018E+02 -6.7177E+02 -6.7355E+02 -6.7550E+02 -6.7762E+02 -6.7990E+02 -6.8231E+02 -6.8482E+02 -6.8739E+02 -6.8998E+02 -6.9255E+02 -6.9504E+02 -6.9739E+02 -6.9961E+02 -7.0166E+02 -7.0348E+02 -7.0499E+02 -7.0605E+02 -7.0749E+02 -7.0849E+02 -7.0912E+02 -7.0899E+02 -7.0737E+02
-7.9894E+02 -7.9895E+02 -7.9896E+02 -7.9897E+02 -7.9898E+02 -7.9899E+02 -7.9900E+02 -7.9901E+02 -7.9902E+02 -7.9903E+02 -7.9904E+02 -7.9905E+02 -7.9905E+02 -7.9906E+02 -7.9907E+02 -7.9907E+02 -7.9908E+02 -7.9908E+02 -7.9909E+02 -7.9909E+02 -7.9908E+02 -7.9908E+02 -7.9907E+02 -7.9906E+02 -7.9905E+02 -7.9903E+02 -7.9901E+02 -7.9899E+02 -7.9897E+02 -7.9894E+02 -7.9891E+02 -7.9887E+02 -7.9884E+02 -7.9880E+02 -7.9876E+02 -7.9873E+02 -7.9869E+02 -7.9865E+02 -7.9862E+02 -7.9859E+02 -7.9856E+02 -7.9853E+02 -7.9850E+02 -7.9848E+02 -7.9847E+02 -7.9846E+02 -7.9845E+02 -7.9845E+02 -7.9845E+02 -7.9846E+02 -7.9847E+02 -7.9848E+02 -7.9850E+02 -7.9852E+02 -7.9855E+02 -7.9857E+02 -7.9859E+02 -7.9862E+02 -7.9864E+02 -7.9866E+02 -7.9868E+02 -7.9869E+02 -7.9870E+02 -7.9870E+02 -7.9870E+02 -7.9869E+02 -7.9867E+02 -7.9865E+02 -7.9862E+02 -7.9858E+02 -7.9854E+02 -7.9849E+02 -7.9843E+02 -7.9837E+02 -7.9829E+02 -7.9819E+02 -7.9807E+02 -7.9793E+02 -7.9777E+02 -7.9756E+02 -7.9732E+02 -7.9703E+02 -7.9668E+02 -7.9627E+02 -7.9578E+02 -7.9522E+02 -7.9456E+02 -7.9381E+02 -7.9296E+02 -7.9199E+02 -7.9090E+02 -7.8969E+02 -7.8834E+02 -7.8684E+02 -7.8520E+02 -7.8340E+02 -7.8143E+02 -7.7930E+02 -7.7699E+02 -7.7451E+02 -7.7184E+02 -7.6900E+02 -7.6597E+02 -7.6276E+02 -7.5938E+02 -7.5584E+02 -7.5213E+02 -7.4827E+02 -7.4428E+02 -7.4017E+02 -7.3596E+02 -7.3167E+02 -7.2731E+02 -7.2291E+02 -7.1849E+02 -7.1408E+02 -7.0970E+02 -7.0537E+02 -7.0112E+02 -6.9697E+02 -6.9295E+02 -6.8907E+02 -6.8537E+02 -6.8185E+02 -6.7855E+02 -6.7546E+02 -6.7262E+02 -6.7001E+02 -6.6766E+02 -6.6557E+02 -6.6373E+02 -6.6214E+02 -6.6080E+02 -6.5969E+02 -6.5880E+02 -6.5812E+02 -6.5763E+02 -6.5731E+02 -6.5715E+02 -6.5712E+02 -6.5721E+02 -6.5741E+02 -6.5768E+02 -6.5803E+02 -6.5843E+02 -6.5889E+02 -6.5939E+02 -6.5993E+02 -6.6052E+02 -6.6115E+02 -6.6183E+02 -6.6258E+02 -6.6341E+02 -6.6434E+02 -6.6538E+02 -6.6656E+02 -6.6789E+02 -6.6938E+02 -6.7106E+02 -6.7292E+02 -6.7498E+02 -6.7722E+02 -6.7962E+02 -6.8218E+02 -6.8484E+02 -6.8758E+02 -6.9036E+02 -6.9313E+02 -6.9583E+02 -6.9840E+02 -7.0085E+02 -7.0314E+02 -7.0521E+02 -7.0696E+02 -7.0827E+02 -7.0997E+02 -7.1123E+02 -7.1212E+02 -7.1226E+02 -7.1088E+02
-7.9900E+02 -7.9901E+02 -7.9902E+02 -7.9902E+02 -7.9903E+02 -7.9904E+02 -7.9905E+02 -7.9905E+02 -7.9906E+02 -7.9907E+02 -7.9907E+02 -7.9908E+02 -7.9908E+02 -7.9909E+02 -7.9909E+02 -7.9909E+02 -7.9909E+02 -7.9910E+02 -7.9909E+02 -7.9909E+02 -7.9909E+02 -7.9908E+02 -7.9907E+02 -7.9906E+02 -7.9904E+02 -7.9903E+02 -7.9900E+02 -7.9898E+02 -7.9895E+02 -7.9892E+02 -7.9889E+02 -7.9886E+02 -7.9882E+02 -7.9879E+02 -7.9875E+02 -7.9871E+02 -7.9868E+02 -7.9864E+02 -7.9861E+02 -7.9858E+02 -7.9855E+02 -7.9852E+02 -7.9850E+02 -7.9848E+02 -7.9847E+02 -7.9846E+02 -7.9845E+02 -7.9845E+02 -7.9845E+02 -7.9846E+02 -7.9847E+02 -7.9849E+02 -7.9851E+02 -7.9853E+02 -7.9856E+02 -7.9859E+02 -7.9861E+02 -7.9864E+02 -7.9867E+02 -7.9869E+02 -7.9871E+02 -7.9873E+02 -7.9874E+02 -7.9874E+02 -7.9874E+02 -7.9873E+02 -7.9872E+02 -7.9870E+02 -7.9867E+02 -7.9863E+02 -7.9859E+02 -7.9854E+02 -7.9848E+02 -7.9841E+02 -7.9832E+02 -7.9822E+02 -7.9810E+02 -7.9796E+02 -7.9778E+02 -7.9757E+02 -7.9732E+02 -7.9702E+02 -7.9667E+02 -7.9624E+02 -7.9575E+02 -7.9518E+02 -7.9451E+02 -7.9375E+02 -7.9289E+02 -7.9191E+02 -7.9080E+02 -7.8957E+02 -7.8821E+02 -7.8670E+02 -7.8503E+02 -7.8321E+02 -7.8123E+02 -7.7907E+02 -7.7674E+02 -7.7423E+02 -7.7153E+02 -7.6865E+02 -7.6559E+02 -7.6235E+02 -7.5893E+02 -7.5534E+02 -7.5159E+02 -7.4769E+02 -7.4364E+02 -7.3948E+02 -7.3522E+02 -7.3086E+02 -7.2645E+02 -7.2199E+02 -7.1751E+02 -7.1304E+02 -7.0860E+02 -7.0421E+02 -6.9990E+02 -6.9570E+02 -6.9163E+02 -6.8770E+02 -6.8396E+02 -6.8041E+02 -6.7707E+02 -6.7396E+02 -6.7109E+02 -6.6847E+02 -6.6611E+02 -6.6401E+02 -6.6218E+02 -6.6060E+02 -6.5926E+02 -6.5817E+02 -6.5730E+02 -6.5664E+02 -6.5618E+02 -6.5588E+02 -6.5575E+02 -6.5575E+02 -6.5587E+02 -6.5609E+02 -6.5639E+02 -6.5676E+02 -6.5720E+02 -6.5768E+02 -6.5821E+02 -6.5878E+02 -6.5939E+02 -6.6005E+02 -6.6076E+02 -6.6154E+02 -6.6241E+02 -6.6337E+02 -6.6446E+02 -6.6568E+02 -6.6706E+02 -6.6862E+02 -6.7037E+02 -6.7232E+02 -6.7447E+02 -6.7682E+02 -6.7935E+02 -6.8204E+02 -6.8485E+02 -6.8776E+02 -6.9072E+02 -6.9368E+02 -6.9658E+02 -6.9937E+02 -7.0205E+02 -7.0458E+02 -7.0689E+02 -7.0891E+02 -7.1048E+02 -7.1244E+02 -7.1397E+02 -7.1513E+02 -7.1554E+02 -7.1443E+02
-7.9907E+02 -7.9908E+02 -7.9909E+02 -7.9909E+02 -7.9910E+02 -7.9910E+02 -7.9911E+02 -7.9911E+02 -7.9911E+02 -7.9912E+02 -7.9912E+02 -7.9912E+02 -7.9912E+02 -7.9913E+02 -7.9913E+02 -7.9913E+02 -7.9912E+02 -7.9912E+02 -7.9912E+02 -7.9911E+02 -7.9910E+02 -7.9909E+02 -7.9908E+02 -7.9907E+02 -7.9905E+02 -7.9903E+02 -7.9901E+02 -7.9898E+02 -7.9895E+02 -7.9892E+02 -7.9889E+02 -7.9886E+02 -7.9882E+02 -7.9879E+02 -7.9875E+02 -7.9871E+02 -7.9868E+02 -7.9864E+02 -7.9861E+02 -7.9858E+02 -7.9855E+02 -7.9853E+02 -7.9850E+02 -7.9849E+02 -7.9847E+02 -7.9846E+02 -7.9846E+02 -7.9846E+02 -7.9846E+02 -7.9847E+02 -7.9848E+02 -7.9850E+02 -7.9853E+02 -7.9855E+02 -7.9858E+02 -7.9861E+02 -7.9864E+02 -7.9867E+02 -7.9870E+02 -7.9872E+02 -7.9875E+02 -7.9877E+02 -7.9878E+02 -7.9879E+02 -7.9879E+02 -7.9878E+02 -7.9877E+02 -7.9875E+02 -7.9873E+02 -7.9869E+02 -7.9865E+02 -7.9860E+02 -7.9853E+02 -7.9846E+02 -7.9837E+02 -7.9827E+02 -7.9814E+02 -7.9800E+02 -7.9782E+02 -7.9760E+02 -7.9734E+02 -7.9704E+02 -7.9667E+02 -7.9624E+02 -7.9574E+02 -7.9516E+02 -7.9449E+02 -7.9372E+02 -7.9284E+02 -7.9185E+02 -7.9074E+02 -7.8949E+02 -7.8811E+02 -7.8658E+02 -7.8491E+02 -7.8307E+02 -7.8106E+02 -7.7888E+02 -7.7653E+02 -7.7399E+02 -7.7127E+02 -7.6836E+02 -7.6527E+02 -7.6199E+02 -7.5854E+02 -7.5491E+02 -7.5111E+02 -7.4716E+02 -7.4308E+02 -7.3887E+02 -7.3455E+02 -7.3014E+02 -7.2567E+02 -7.2116E+02 -7.1662E+02 -7.1210E+02 -7.0760E+02 -7.0316E+02 -6.9880E+02 -6.9454E+02 -6.9042E+02 -6.8646E+02 -6.8267E+02 -6.7909E+02 -6.7572E+02 -6.7258E+02 -6.6970E+02 -6.6707E+02 -6.6470E+02 -6.6260E+02 -6.6076E+02 -6.5919E+02 -6.5787E+02 -6.5679E+02 -6.5594E+02 -6.5530E+02 -6.5485E+02 -6.5458E+02 -6.5447E+02 -6.5449E+02 -6.5463E+02 -6.5487E+02 -6.5520E+02 -6.5560E+02 -6.5605E+02 -6.5656E+02 -6.5710E+02 -6.5770E+02 -6.5833E+02 -6.5901E+02 -6.5975E+02 -6.6056E+02 -6.6146E+02 -6.6246E+02 -6.6358E+02 -6.6485E+02 -6.6628E+02 -6.6790E+02 -6.6972E+02 -6.7175E+02 -6.7399E+02 -6.7643E+02 -6.7908E+02 -6.8189E+02 -6.8485E+02 -6.8791E+02 -6.9104E+02 -6.9419E+02 -6.9729E+02 -7.0029E+02 -7.0320E+02 -7.0596E+02 -7.0852E+02 -7.1079E+02 -7.1263E+02 -7.1485E+02 -7.1665E+02 -7.1809E+02 -7.1880E+02 -7.1797E+02
-7.9916E+02 -7.9917E+02 -7.9917E+02 -7.9917E+02 -7.9918E+02 -7.9918E+02 -7.9918E+02 -7.9918E+02 -7.9918E+02 -7.9918E+02 -7.9918E+02 -7.9918E+02 -7.9918E+02 -7.9918E+02 -7.9918E+02 -7.9917E+02 -7.9917E+02 -7.9916E+02 -7.9915E+02 -7.9914E+02 -7.9913E+02 -7.9912E+02 -7.9910E+02 -7.9909E+02 -7.9907E+02 -7.9904E+02 -7.9902E+02 -7.9899E+02 -7.9896E+02 -7.9893E+02 -7.9890E+02 -7.9887E+02 -7.9883E+02 -7.9880E+02 -7.9876E+02 -7.9872E+02 -7.9869E+02 -7.9866E+02 -7.9862E+02 -7.9859E+02 -7.9857E+02 -7.9854E+02 -7.9852E+02 -7.9850E+02 -7.9849E+02 -7.9848E+02 -7.9847E+02 -7.9847E+02 -7.9848E+02 -7.9849E+02 -7.9850E+02 -7.9852E+02 -7.9855E+02 -7.9857E+02 -7.9860E+02 -7.9863E+02 -7.9867E+02 -7.9870E+02 -7.9873E+02 -7.9876E+02 -7.9879E+02 -7.9881E+02 -7.9883E+02 -7.9884E+02 -7.9884E+02 -7.9884E+02 -7.9883E+02 -7.9881E+02 -7.9879E+02 -7.9876E+02 -7.9871E+02 -7.9866E+02 -7.9860E+02 -7.9853E+02 -7.9844E+02 -7.9833E+02 -7.9820E+02 -7.9805E+02 -7.9787E+02 -7.9765E+02 -7.9738E+02 -7.9707E+02 -7.9670E+02 -7.9627E+02 -7.9576E+02 -7.9517E+02 -7.9449E+02 -7.9371E+02 -7.9282E+02 -7.9182E+02 -7.9070E+02 -7.8944E+02 -7.8805E+02 -7.8651E+02 -7.8481E+02 -7.8296E+02 -7.8094E+02 -7.7874E+02 -7.7636E+02 -7.7380E+02 -7.7105E+02 -7.6812E+02 -7.6499E+02 -7.6168E+02 -7.5819E+02 -7.5453E+02 -7.5069E+02 -7.4670E+02 -7.4257E+02 -7.3832E+02 -7.3395E+02 -7.2950E+02 -7.2498E+02 -7.2041E+02 -7.1583E+02 -7.1125E+02 -7.0670E+02 -7.0221E+02 -6.9780E+02 -6.9350E+02 -6.8934E+02 -6.8533E+02 -6.8151E+02 -6.7790E+02 -6.7450E+02 -6.7135E+02 -6.6844E+02 -6.6580E+02 -6.6343E+02 -6.6133E+02 -6.5950E+02 -6.5793E+02 -6.5662E+02 -6.5555E+02 -6.5471E+02 -6.5409E+02 -6.5366E+02 -6.5340E+02 -6.5331E+02 -6.5335E+02 -6.5351E+02 -6.5377E+02 -6.5411E+02 -6.5452E+02 -6.5500E+02 -6.5552E+02 -6.5609E+02 -6.5670E+02 -6.5735E+02 -6.5805E+02 -6.5881E+02 -6.5965E+02 -6.6057E+02 -6.6160E+02 -6.6276E+02 -6.6407E+02 -6.6555E+02 -6.6722E+02 -6.6910E+02 -6.7120E+02 -6.7352E+02 -6.7606E+02 -6.7880E+02 -6.8174E+02 -6.8482E+02 -6.8803E+02 -6.9132E+02 -6.9464E+02 -6.9794E+02 -7.0114E+02 -7.0427E+02 -7.0726E+02 -7.1006E+02 -7.1259E+02 -7.1469E+02 -7.1717E+02 -7.1925E+02 -7.2098E+02 -7.2198E+02 -7.2146E+02
-7.9926E+02 -7.9927E+02 -7.9927E+02 -7.9927E+02 -7.9927E+02 -7.9927E+02 -7.9927E+02 -7.9927E+02 -7.9927E+02 -7.9927E+02 -7.9926E+02 -7.9926E+02 -7.9925E+02 -7.9925E+02 -7.9924E+02 -7.9923E+02 -7.9922E+02 -7.9921E+02 -7.9920E+02 -7.9919E+02 -7.9917E+02 -7.9916E+02 -7.9914E+02 -7.9912E+02 -7.9910E+02 -7.9907E+02 -7.9905E+02 -7.9902E+02 -7.9899E+02 -7.9896E+02 -7.9892E+02 -7.9889E+02 -7.9885E+02 -7.9882E+02 -7.9878E+02 -7.9875E+02 -7.9871E+02 -7.9868E+02 -7.9865E+02 -7.9862E+02 -7.9859E+02 -7.9857E+02 -7.9855E+02 -7.9853E+02 -7.9852E+02 -7.9851E+02 -7.9850E+02 -7.9850E+02 -7.9850E+02 -7.9851E+02 -7.9853E+02 -7.9855E+02 -7.9857E+02 -7.9860E+02 -7.9863E+02 -7.9866E+02 -7.9870E+02 -7.9873E+02 -7.9877E+02 -7.9880E+02 -7.9883E+02 -7.9886E+02 -7.9888E+02 -7.9889E+02 -7.9890E+02 -7.9890E+02 -7.9890E+02 -7.9888E+02 -7.9886E+02 -7.9883E+02 -7.9879E+02 -7.9874E+02 -7.9868E+02 -7.9861E+02 -7.9852E+02 -7.9841E+02 -7.9828E+02 -7.9812E+02 -7.9794E+02 -7.9771E+02 -7.9745E+02 -7.9713E+02 -7.9675E+02 -7.9631E+02 -7.9580E+02 -7.9520E+02 -7.9451E+02 -7.9373E+02 -7.9283E+02 -7.9182E+02 -7.9069E+02 -7.8942E+02 -7.8802E+02 -7.8647E+02 -7.8476E+02 -7.8289E+02 -7.8085E+02 -7.7863E+02 -7.7623E+02 -7.7365E+02 -7.7088E+02 -7.6791E+02 -7.6476E+02 -7.6142E+02 -7.5790E+02 -7.5420E+02 -7.5033E+02 -7.4630E+02 -7.4213E+02 -7.3783E+02 -7.3342E+02 -7.2892E+02 -7.2435E+02 -7.1974E+02 -7.1511E+02 -7.1049E+02 -7.0589E+02 -7.0135E+02 -6.9690E+02 -6.9256E+02 -6.8836E+02 -6.8432E+02 -6.8047E+02 -6.7683E+02 -6.7341E+02 -6.7024E+02 -6.6733E+02 -6.6468E+02 -6.6230E+02 -6.6020E+02 -6.5837E+02 -6.5681E+02 -6.5550E+02 -6.5444E+02 -6.5362E+02 -6.5301E+02 -6.5259E+02 -6.5235E+02 -6.5227E+02 -6.5232E+02 -6.5250E+02 -6.5277E+02 -6.5312E+02 -6.5355E+02 -6.5403E+02 -6.5457E+02 -6.5515E+02 -6.5577E+02 -6.5644E+02 -6.5716E+02 -6.5794E+02 -6.5880E+02 -6.5974E+02 -6.6080E+02 -6.6199E+02 -6.6333E+02 -6.6486E+02 -6.6658E+02 -6.6851E+02 -6.7067E+02 -6.7307E+02 -6.7569E+02 -6.7853E+02 -6.8157E+02 -6.8478E+02 -6.8812E+02 -6.9156E+02 -6.9505E+02 -6.9852E+02 -7.0192E+02 -7.0526E+02 -7.0847E+02 -7.1151E+02 -7.1428E+02 -7.1665E+02 -7.1938E+02 -7.2173E+02 -7.2374E+02 -7.2504E+02 -7.2484E+02
-7.9937E+02 -7.9938E+02 -7.9939E+02 -7.9939E+02 -7.9938E+02 -7.9938E+02 -7.9938E+02 -7.9938E+02 -7.9937E+02 -7.9937E+02 -7.9936E+02 -7.9935E+02 -7.9934E+02 -7.9933E+02 -7.9932E+02 -7.9931E+02 -7.9930E+02 -7.9928E+02 -7.9927E+02 -7.9925E+02 -7.9923E+02 -7.9921E+02 -7.9919E+02 -7.9917E+02 -7.9914E+02 -7.9911E+02 -7.9909E+02 -7.9906E+02 -7.9902E+02 -7.9899E+02 -7.9896E+02 -7.9892E+02 -7.9889E+02 -7.9885E+02 -7.9882E+02 -7.9878E+02 -7.9875E+02 -7.9872E+02 -7.9869E+02 -7.9866E+02 -7.9863E+02 -7.9861E+02 -7.9859E+02 -7.9857E+02 -7.9855E+02 -7.9854E+02 -7.9854E+02 -7.9853E+02 -7.9854E+02 -7.9855E+02 -7.9856E+02 -7.9858E+02 -7.9861E+02 -7.9863E+02 -7.9867E+02 -7.9870E+02 -7.9874E+02 -7.9877E+02 -7.9881E+02 -7.9885E+02 -7.9888E+02 -7.9891E+02 -7.9893E+02 -7.9895E+02 -7.9897E+02 -7.9897E+02 -7.9897E+02 -7.9896E+02 -7.9894E+02 -7.9892E+02 -7.9888E+02 -7.9883E+02 -7.9877E+02 -7.9870E+02 -7.9861E+02 -7.9850E+02 -7.9837E+02 -7.9821E+02 -7.9803E+02 -7.9780E+02 -7.9753E+02 -7.9721E+02 -7.9683E+02 -7.9638E+02 -7.9586E+02 -7.9526E+02 -7.9457E+02 -7.9377E+02 -7.9287E+02 -7.9185E+02 -7.9071E+02 -7.8944E+02 -7.8802E+02 -7.8646E+02 -7.8473E+02 -7.8285E+02 -7.8079E+02 -7.7855E+02 -7.7614E+02 -7.7353E+02 -7.7074E+02 -7.6775E+02 -7.6457E+02 -7.6120E+02 -7.5764E+02 -7.5391E+02 -7.5000E+02 -7.4594E+02 -7.4173E+02 -7.3739E+02 -7.3295E+02 -7.2841E+02 -7.2380E+02 -7.1914E+02 -7.1447E+02 -7.0980E+02 -7.0516E+02 -7.0059E+02 -6.9610E+02 -6.9172E+02 -6.8749E+02 -6.8342E+02 -6.7954E+02 -6.7588E+02 -6.7244E+02 -6.6926E+02 -6.6633E+02 -6.6368E+02 -6.6130E+02 -6.5920E+02 -6.5737E+02 -6.5582E+02 -6.5452E+02 -6.5347E+02 -6.5266E+02 -6.5205E+02 -6.5165E+02 -6.5142E+02 -6.5135E+02 -6.5141E+02 -6.5159E+02 -6.5187E+02 -6.5223E+02 -6.5267E+02 -6.5316E+02 -6.5370E+02 -6.5429E+02 -6.5493E+02 -6.5561E+02 -6.5634E+02 -6.5714E+02 -6.5801E+02 -6.5898E+02 -6.6006E+02 -6.6127E+02 -6.6265E+02 -6.6421E+02 -6.6597E+02 -6.6796E+02 -6.7017E+02 -6.7263E+02 -6.7533E+02 -6.7826E+02 -6.8140E+02 -6.8472E+02 -6.8818E+02 -6.9176E+02 -6.9540E+02 -6.9904E+02 -7.0262E+02 -7.0616E+02 -7.0958E+02 -7.1285E+02 -7.1586E+02 -7.1848E+02 -7.2146E+02 -7.2408E+02 -7.2636E+02 -7.2796E+02 -7.2808E+02
-7.9950E+02 -7.9951E+02 -7.9951E+02 -7.9951E+02 -7.9951E+02 -7.9950E+02 -7.9950E+02 -7.9949E+02 -7.9949E+02 -7.9948E+02 -7.9947E+02 -7.9946E+02 -7.9945E+02 -7.9943E+02 -7.9942E+02 -7.9940E+02 -7.9938E+02 -7.9937E+02 -7.9935E+02 -7.9932E+02 -7.9930E+02 -7.9928E+02 -7.9925E+02 -7.9923E+02 -7.9920E+02 -7.9917E+02 -7.9914E+02 -7.9911E+02 -7.9907E+02 -7.9904E+02 -7.9901E+02 -7.9897E+02 -7.9894E+02 -7.9890E+02 -7.9887E+02 -7.9883E+02 -7.9880E+02 -7.9877E+02 -7.9874E+02 -7.9871E+02 -7.9868E+02 -7.9866E+02 -7.9863E+02 -7.9862E+02 -7.9860E+02 -7.9859E+02 -7.9858E+02 -7.9858E+02 -7.9858E+02 -7.9859E+02 -7.9860E+02 -7.9862E+02 -7.9864E+02 -7.9867E+02 -7.9870E+02 -7.9874E+02 -7.9878E+02 -7.9882E+02 -7.9886E+02 -7.9889E+02 -7.9893E+02 -7.9896E+02 -7.9899E+02 -7.9902E+02 -7.9904E+02 -7.9905E+02 -7.9905E+02 -7.9905E+02 -7.9903E+02 -7.9901E+02 -7.9898E+02 -7.9894E+02 -7.9888E+02 -7.9881E+02 -7.9872E+02 -7.9861E+02 -7.9848E+02 -7.9833E+02 -7.9814E+02 -7.9791E+02 -7.9763E+02 -7.9731E+02 -7.9693E+02 -7.9648E+02 -7.9595E+02 -7.9534E+02 -7.9464E+02 -7.9385E+02 -7.9294E+02 -7.9191E+02 -7.9076E+02 -7.8948E+02 -7.8805E+02 -7.8647E+02 -7.8474E+02 -7.8284E+02 -7.8076E+02 -7.7851E+02 -7.7607E+02 -7.7344E+02 -7.7062E+02 -7.6761E+02 -7.6440E+02 -7.6100E+02 -7.5742E+02 -7.5365E+02 -7.4972E+02 -7.4562E+02 -7.4138E+02 -7.3700E+02 -7.3252E+02 -7.2794E+02 -7.2329E+02 -7.1860E+02 -7.1389E+02 -7.0918E+02 -7.0451E+02 -6.9989E+02 -6.9537E+02 -6.9097E+02 -6.8670E+02 -6.8261E+02 -6.7871E+02 -6.7503E+02 -6.7158E+02 -6.6838E+02 -6.6545E+02 -6.6280E+02 -6.6042E+02 -6.5832E+02 -6.5650E+02 -6.5495E+02 -6.5366E+02 -6.5262E+02 -6.5181E+02 -6.5122E+02 -6.5082E+02 -6.5060E+02 -6.5053E+02 -6.5060E+02 -6.5078E+02 -6.5107E+02 -6.5143E+02 -6.5187E+02 -6.5237E+02 -6.5292E+02 -6.5351E+02 -6.5415E+02 -6.5484E+02 -6.5558E+02 -6.5639E+02 -6.5728E+02 -6.5826E+02 -6.5937E+02 -6.6061E+02 -6.6201E+02 -6.6360E+02 -6.6541E+02 -6.6744E+02 -6.6971E+02 -6.7222E+02 -6.7499E+02 -6.7800E+02 -6.8122E+02 -6.8464E+02 -6.8822E+02 -6.9193E+02 -6.9570E+02 -6.9950E+02 -7.0325E+02 -7.0697E+02 -7.1059E+02 -7.1407E+02 -7.1731E+02 -7.2017E+02 -7.2339E+02 -7.2626E+02 -7.2881E+02 -7.3070E+02 -7.3114E+02
-7.9964E+02 -7.9965E+02 -7.9966E+02 -7.9965E+02 -7.9965E+02 -7.9964E+02 -7.9964E+02 -7.9963E+02 -7.9962E+02 -7.9961E+02 -7.9959E+02 -7.9958E+02 -7.9956E+02 -7.9955E+02 -7.9953E+02 -7.9951E+02 -7.9949E+02 -7.9946E+02 -7.9944E+02 -7.9941E+02 -7.9939E+02 -7.9936E+02 -7.9933E+02 -7.9930E+02 -7.9927E+02 -7.9924E+02 -7.9920E+02 -7.9917E+02 -7.9914E+02 -7.9910E+02 -7.9907E+02 -7.9903E+02 -7.9900E+02 -7.9896E+02 -7.9893E+02 -7.9889E+02 -7.9886E+02 -7.9883E+02 -7.9880E+02 -7.9877E+02 -7.9874E+02 -7.9872E+02 -7.9869E+02 -7.9867E+02 -7.9866E+02 -7.9864E+02 -7.9863E+02 -7.9863E+02 -7.9863E+02 -7.9863E+02 -7.9865E+02 -7.9866E+02 -7.9869E+02 -7.9871E+02 -7.9875E+02 -7.9878E+02 -7.9882E+02 -7.9886E+02 -7.9890E+02 -7.9895E+02 -7.9899E+02 -7.9902E+02 -7.9906E+02 -7.9909E+02 -7.9911E+02 -7.9913E+02 -7.9914E+02 -7.9914E+02 -7.9914E+02 -7.9912E+02 -7.9909E+02 -7.9905E+02 -7.9900E+02 -7.9894E+02 -7.9885E+02 -7.9875E+02 -7.9862E+02 -7.9846E+02 -7.9827E+02 -7.9804E+02 -7.9776E+02 -7.9744E+02 -7.9705E+02 -7.9660E+02 -7.9607E+02 -7.9545E+02 -7.9475E+02 -7.9394E+02 -7.9303E+02 -7.9200E+02 -7.9084E+02 -7.8954E+02 -7.8810E+02 -7.8651E+02 -7.8476E+02 -7.8285E+02 -7.8076E+02 -7.7848E+02 -7.7603E+02 -7.7338E+02 -7.7053E+02 -7.6749E+02 -7.6426E+02 -7.6084E+02 -7.5722E+02 -7.5342E+02 -7.4946E+02 -7.4533E+02 -7.4105E+02 -7.3664E+02 -7.3212E+02 -7.2751E+02 -7.2283E+02 -7.1810E+02 -7.1335E+02 -7.0861E+02 -7.0391E+02 -6.9926E+02 -6.9471E+02 -6.9028E+02 -6.8599E+02 -6.8188E+02 -6.7796E+02 -6.7427E+02 -6.7081E+02 -6.6761E+02 -6.6467E+02 -6.6202E+02 -6.5964E+02 -6.5755E+02 -6.5573E+02 -6.5419E+02 -6.5291E+02 -6.5188E+02 -6.5107E+02 -6.5049E+02 -6.5009E+02 -6.4987E+02 -6.4981E+02 -6.4988E+02 -6.5007E+02 -6.5035E+02 -6.5072E+02 -6.5116E+02 -6.5165E+02 -6.5220E+02 -6.5280E+02 -6.5344E+02 -6.5414E+02 -6.5489E+02 -6.5571E+02 -6.5661E+02 -6.5761E+02 -6.5873E+02 -6.5999E+02 -6.6142E+02 -6.6304E+02 -6.6488E+02 -6.6695E+02 -6.6927E+02 -6.7184E+02 -6.7467E+02 -6.7774E+02 -6.8105E+02 -6.8456E+02 -6.8824E+02 -6.9206E+02 -6.9597E+02 -6.9991E+02 -7.0381E+02 -7.0770E+02 -7.1151E+02 -7.1518E+02 -7.1864E+02 -7.2173E+02 -7.2517E+02 -7.2828E+02 -7.3108E+02 -7.3325E+02 -7.3401E+02
-7.9979E+02 -7.9981E+02 -7.9981E+02 -7.9981E+02 -7.9980E+02 -7.9979E+02 -7.9978E+02 -7.9977E+02 -7.9976E+02 -7.9975E+02 -7.9973E+02 -7.9971E+02 -7.9970E+02 -7.9967E+02 -7.9965E+02 -7.9963E+02 -7.9960E+02 -7.9958E+02 -7.9955E+02 -7.9952E+02 -7.9949E+02 -7.9946E+02 -7.9942E+02 -7.9939E+02 -7.9936E+02 -7.9932E+02 -7.9929E+02 -7.9925E+02 -7.9921E+02 -7.9918E+02 -7.9914E+02 -7.9910E+02 -7.9907E+02 -7.9903E+02 -7.9900E+02 -7.9897E+02 -7.9893E+02 -7.9890E+02 -7.9887E+02 -7.9884E+02 -7.9881E+02 -7.9878E+02 -7.9876E+02 -7.9874E+02 -7.9872E+02 -7.9870E+02 -7.9869E+02 -7.9868E+02 -7.9868E+02 -7.9869E+02 -7.9870E+02 -7.9871E+02 -7.9873E+02 -7.9876E+02 -7.9879E+02 -7.9883E+02 -7.9887E+02 -7.9891E+02 -7.9895E+02 -7.9900E+02 -7.9904E+02 -7.9909E+02 -7.9913E+02 -7.9916E+02 -7.9919E+02 -7.9922E+02 -7.9924E+02 -7.9925E+02 -7.9925E+02 -7.9924E+02 -7.9922E+02 -7.9919E+02 -7.9914E+02 -7.9908E+02 -7.9900E+02 -7.9890E+02 -7.9877E+02 -7.9861E+02 -7.9842E+02 -7.9819E+02 -7.9792E+02 -7.9759E+02 -7.9720E+02 -7.9674E+02 -7.9621E+02 -7.9559E+02 -7.9488E+02 -7.9406E+02 -7.9314E+02 -7.9210E+02 -7.9093E+02 -7.8963E+02 -7.8818E+02 -7.8658E+02 -7.8481E+02 -7.8288E+02 -7.8077E+02 -7.7848E+02 -7.7600E+02 -7.7333E+02 -7.7046E+02 -7.6740E+02 -7.6414E+02 -7.6068E+02 -7.5704E+02 -7.5321E+02 -7.4921E+02 -7.4505E+02 -7.4074E+02 -7.3630E+02 -7.3175E+02 -7.2710E+02 -7.2239E+02 -7.1763E+02 -7.1285E+02 -7.0808E+02 -7.0334E+02 -6.9867E+02 -6.9410E+02 -6.8964E+02 -6.8534E+02 -6.8121E+02 -6.7728E+02 -6.7358E+02 -6.7012E+02 -6.6691E+02 -6.6398E+02 -6.6133E+02 -6.5896E+02 -6.5687E+02 -6.5506E+02 -6.5353E+02 -6.5225E+02 -6.5123E+02 -6.5043E+02 -6.4985E+02 -6.4946E+02 -6.4924E+02 -6.4918E+02 -6.4925E+02 -6.4943E+02 -6.4971E+02 -6.5008E+02 -6.5051E+02 -6.5101E+02 -6.5156E+02 -6.5215E+02 -6.5280E+02 -6.5350E+02 -6.5425E+02 -6.5508E+02 -6.5599E+02 -6.5700E+02 -6.5814E+02 -6.5942E+02 -6.6088E+02 -6.6253E+02 -6.6440E+02 -6.6650E+02 -6.6886E+02 -6.7149E+02 -6.7437E+02 -6.7751E+02 -6.8089E+02 -6.8448E+02 -6.8825E+02 -6.9218E+02 -6.9620E+02 -7.0027E+02 -7.0432E+02 -7.0836E+02 -7.1234E+02 -7.1620E+02 -7.1985E+02 -7.2316E+02 -7.2680E+02 -7.3013E+02 -7.3318E+02 -7.3561E+02 -7.3668E+02
-7.9996E+02 -7.9997E+02 -7.9997E+02 -7.9997E+02 -7.9996E+02 -7.9995E+02 -7.9994E+02 -7.9993E+02 -7.9992E+02 -7.9990E+02 -7.9988E+02 -7.9986E+02 -7.9984E+02 -7.9982E+02 -7.9979E+02 -7.9976E+02 -7.9973E+02 -7.9970E+02 -7.9967E+02 -7.9964E+02 -7.9960E+02 -7.9957E+02 -7.9953E+02 -7.9949E+02 -7.9945E+02 -7.9942E+02 -7.9938E+02 -7.9934E+02 -7.9930E+02 -7.9926E+02 -7.9923E+02 -7.9919E+02 -7.9915E+02 -7.9912E+02 -7.9908E+02 -7.9905E+02 -7.9902E+02 -7.9898E+02 -7.9895E+02 -7.9892E+02 -7.9889E+02 -7.9886E+02 -7.9883E+02 -7.9881E+02 -7.9879E+02 -7.9877E+02 -7.9876E+02 -7.9875E+02 -7.9874E+02 -7.9874E+02 -7.9875E+02 -7.9876E+02 -7.9878E+02 -7.9881E+02 -7.9884E+02 -7.9887E+02 -7.9891E+02 -7.9896E+02 -7.9901E+02 -7.9906E+02 -7.9910E+02 -7.9915E+02 -7.9920E+02 -7.9924E+02 -7.9928E+02 -7.9931E+02 -7.9934E+02 -7.9936E+02 -7.9937E+02 -7.9937E+02 -7.9936E+02 -7.9933E+02 -7.9929E+02 -7.9924E+02 -7.9917E+02 -7.9907E+02 -7.9894E+02 -7.9879E+02 -7.9860E+02 -7.9837E+02 -7.9809E+02 -7.9776E+02 -7.9737E+02 -7.9691E+02 -7.9637E+02 -7.9574E+02 -7.9503E+02 -7.9421E+02 -7.9328E+02 -7.9223E+02 -7.9105E+02 -7.8974E+02 -7.8827E+02 -7.8666E+02 -7.8488E+02 -7.8293E+02 -7.8080E+02 -7.7849E+02 -7.7598E+02 -7.7329E+02 -7.7040E+02 -7.6730E+02 -7.6402E+02 -7.6053E+02 -7.5686E+02 -7.5300E+02 -7.4897E+02 -7.4478E+02 -7.4044E+02 -7.3597E+02 -7.3138E+02 -7.2671E+02 -7.2196E+02 -7.1717E+02 -7.1237E+02 -7.0757E+02 -7.0281E+02 -6.9812E+02 -6.9352E+02 -6.8905E+02 -6.8473E+02 -6.8059E+02 -6.7665E+02 -6.7295E+02 -6.6948E+02 -6.6628E+02 -6.6335E+02 -6.6071E+02 -6.5834E+02 -6.5627E+02 -6.5447E+02 -6.5295E+02 -6.5168E+02 -6.5066E+02 -6.4987E+02 -6.4929E+02 -6.4890E+02 -6.4869E+02 -6.4862E+02 -6.4869E+02 -6.4887E+02 -6.4914E+02 -6.4950E+02 -6.4993E+02 -6.5043E+02 -6.5097E+02 -6.5157E+02 -6.5221E+02 -6.5291E+02 -6.5367E+02 -6.5450E+02 -6.5542E+02 -6.5645E+02 -6.5760E+02 -6.5890E+02 -6.6038E+02 -6.6206E+02 -6.6396E+02 -6.6610E+02 -6.6850E+02 -6.7116E+02 -6.7410E+02 -6.7730E+02 -6.8074E+02 -6.8441E+02 -6.8827E+02 -6.9228E+02 -6.9641E+02 -7.0059E+02 -7.0477E+02 -7.0896E+02 -7.1309E+02 -7.1712E+02 -7.2095E+02 -7.2446E+02 -7.2829E+02 -7.3183E+02 -7.3509E+02 -7.3778E+02 -7.3914E+02
-8.0012E+02 -8.0014E+02 -8.0014E+02 -8.0014E+02 -8.0013E+02 -8.0012E+02 -8.0011E+02 -8.0010E+02 -8.0009E+02 -8.0007E+02 -8.0005E+02 -8.0003E+02 -8.0000E+02 -7.9997E+02 -7.9994E+02 -7.9991E+02 -7.9988E+02 -7.9984E+02 -7.9981E+02 -7.9977E+02 -7.9973E+02 -7.9969E+02 -7.9965E+02 -7.9961E+02 -7.9957E+02 -7.9953E+02 -7.9948E+02 -7.9944E+02 -7.9940E+02 -7.9936E+02 -7.9932E+02 -7.9929E+02 -7.9925E+02 -7.9921E+02 -7.9918E+02 -7.9914E+02 -7.9911E+02 -7.9907E+02 -7.9904E+02 -7.9901E+02 -7.9897E+02 -7.9894E+02 -7.9891E+02 -7.9889E+02 -7.9886E+02 -7.9884E+02 -7.9882E+02 -7.9881E+02 -7.9880E+02 -7.9880E+02 -7.9880E+02 -7.9881E+02 -7.9883E+02 -7.9885E+02 -7.9888E+02 -7.9892E+02 -7.9896E+02 -7.9901E+02 -7.9906E+02 -7.9911E+02 -7.9916E+02 -7.9922E+02 -7.9927E+02 -7.9932E+02 -7.9937E+02 -7.9941E+02 -7.9945E+02 -7.9948E+02 -7.9950E+02 -7.9951E+02 -7.9951E+02 -7.9949E+02 -7.9947E+02 -7.9942E+02 -7.9935E+02 -7.9926E+02 -7.9914E+02 -7.9899E+02 -7.9880E+02 -7.9857E+02 -7.9829E+02 -7.9796E+02 -7.9756E+02 -7.9710E+02 -7.9655E+02 -7.9592E+02 -7.9520E+02 -7.9437E+02 -7.9343E+02 -7.9237E+02 -7.9119E+02 -7.8986E+02 -7.8838E+02 -7.8675E+02 -7.8495E+02 -7.8299E+02 -7.8084E+02 -7.7850E+02 -7.7598E+02 -7.7325E+02 -7.7033E+02 -7.6722E+02 -7.6390E+02 -7.6038E+02 -7.5668E+02 -7.5279E+02 -7.4873E+02 -7.4451E+02 -7.4014E+02 -7.3563E+02 -7.3102E+02 -7.2631E+02 -7.2154E+02 -7.1672E+02 -7.1189E+02 -7.0707E+02 -7.0228E+02 -6.9757E+02 -6.9296E+02 -6.8847E+02 -6.8414E+02 -6.8000E+02 -6.7606E+02 -6.7235E+02 -6.6889E+02 -6.6570E+02 -6.6278E+02 -6.6014E+02 -6.5779E+02 -6.5573E+02 -6.5394E+02 -6.5243E+02 -6.5117E+02 -6.5016E+02 -6.4938E+02 -6.4880E+02 -6.4841E+02 -6.4820E+02 -6.4813E+02 -6.4819E+02 -6.4836E+02 -6.4864E+02 -6.4899E+02 -6.4941E+02 -6.4990E+02 -6.5044E+02 -6.5103E+02 -6.5168E+02 -6.5238E+02 -6.5314E+02 -6.5398E+02 -6.5490E+02 -6.5594E+02 -6.5711E+02 -6.5843E+02 -6.5993E+02 -6.6163E+02 -6.6356E+02 -6.6573E+02 -6.6817E+02 -6.7088E+02 -6.7386E+02 -6.7711E+02 -6.8062E+02 -6.8435E+02 -6.8829E+02 -6.9239E+02 -6.9661E+02 -7.0090E+02 -7.0520E+02 -7.0951E+02 -7.1378E+02 -7.1796E+02 -7.2196E+02 -7.2565E+02 -7.2965E+02 -7.3338E+02 -7.3685E+02 -7.3977E+02 -7.4140E+02
-8.0030E+02 -8.0032E+02 -8.0032E+02 -8.0032E+02 -8.0031E+02 -8.0030E+02 -8.0029E+02 -8.0028E+02 -8.0026E+02 -8.0025E+02 -8.0022E+02 -8.0020E+02 -8.0017E+02 -8.0014E+02 -8.0011E+02 -8.0007E+02 -8.0003E+02 -8.0000E+02 -7.9995E+02 -7.9991E+02 -7.9987E+02 -7.9983E+02 -7.9978E+02 -7.9974E+02 -7.9969E+02 -7.9965E+02 -7.9960E+02 -7.9956E+02 -7.9952E+02 -7.9947E+02 -7.9943E+02 -7.9939E+02 -7.9935E+02 -7.9932E+02 -7.9928E+02 -7.9924E+02 -7.9920E+02 -7.9917E+02 -7.9913E+02 -7.9910E+02 -7.9906E+02 -7.9903E+02 -7.9900E+02 -7.9897E+02 -7.9894E+02 -7.9891E+02 -7.9889E+02 -7.9887E+02 -7.9886E+02 -7.9886E+02 -7.9886E+02 -7.9887E+02 -7.9888E+02 -7.9890E+02 -7.9893E+02 -7.9897E+02 -7.9901E+02 -7.9906E+02 -7.9911E+02 -7.9917E+02 -7.9923E+02 -7.9929E+02 -7.9935E+02 -7.9941E+02 -7.9946E+02 -7.9952E+02 -7.9956E+02 -7.9961E+02 -7.9964E+02 -7.9966E+02 -7.9967E+02 -7.9967E+02 -7.9965E+02 -7.9961E+02 -7.9955E+02 -7.9947E+02 -7.9936E+02 -7.9921E+02 -7.9902E+02 -7.9879E+02 -7.9851E+02 -7.9818E+02 -7.9778E+02 -7.9731E+02 -7.9676E+02 -7.9612E+02 -7.9539E+02 -7.9455E+02 -7.9361E+02 -7.9254E+02 -7.9133E+02 -7.8999E+02 -7.8850E+02 -7.8685E+02 -7.8504E+02 -7.8305E+02 -7.8088E+02 -7.7852E+02 -7.7597E+02 -7.7322E+02 -7.7027E+02 -7.6712E+02 -7.6377E+02 -7.6023E+02 -7.5649E+02 -7.5257E+02 -7.4848E+02 -7.4422E+02 -7.3982E+02 -7.3528E+02 -7.3064E+02 -7.2590E+02 -7.2110E+02 -7.1626E+02 -7.1140E+02 -7.0656E+02 -7.0175E+02 -6.9703E+02 -6.9240E+02 -6.8790E+02 -6.8357E+02 -6.7942E+02 -6.7548E+02 -6.7178E+02 -6.6833E+02 -6.6515E+02 -6.6224E+02 -6.5962E+02 -6.5728E+02 -6.5523E+02 -6.5346E+02 -6.5196E+02 -6.5071E+02 -6.4971E+02 -6.4893E+02 -6.4836E+02 -6.4798E+02 -6.4776E+02 -6.4769E+02 -6.4774E+02 -6.4791E+02 -6.4818E+02 -6.4852E+02 -6.4894E+02 -6.4942E+02 -6.4995E+02 -6.5054E+02 -6.5118E+02 -6.5188E+02 -6.5265E+02 -6.5349E+02 -6.5443E+02 -6.5548E+02 -6.5666E+02 -6.5799E+02 -6.5951E+02 -6.6124E+02 -6.6320E+02 -6.6541E+02 -6.6788E+02 -6.7063E+02 -6.7366E+02 -6.7696E+02 -6.8053E+02 -6.8432E+02 -6.8833E+02 -6.9251E+02 -6.9682E+02 -7.0120E+02 -7.0561E+02 -7.1004E+02 -7.1443E+02 -7.1875E+02 -7.2290E+02 -7.2675E+02 -7.3091E+02 -7.3481E+02 -7.3846E+02 -7.4159E+02 -7.4348E+02
-8.0048E+02 -8.0050E+02 -8.0051E+02 -8.0051E+02 -8.0050E+02 -8.0049E+02 -8.0048E+02 -8.0047E+02 -8.0045E+02 -8.0043E+02 -8.0041E+02 -8.0038E+02 -8.0035E+02 -8.0032E+02 -8.0028E+02 -8.0024E+02 -8.0020E+02 -8.0016E+02 -8.0012E+02 -8.0007E+02 -8.0002E+02 -7.9997E+02 -7.9993E+02 -7.9988E+02 -7.9983E+02 -7.9978E+02 -7.9973E+02 -7.9969E+02 -7.9964E+02 -7.9960E+02 -7.9955E+02 -7.9951E+02 -7.9947E+02 -7.9943E+02 -7.9939E+02 -7.9935E+02 -7.9931E+02 -7.9927E+02 -7.9923E+02 -7.9920E+02 -7.9916E+02 -7.9912E+02 -7.9908E+02 -7.9905E+02 -7.9902E+02 -7.9899E+02 -7.9896E+02 -7.9894E+02 -7.9892E+02 -7.9891E+02 -7.9891E+02 -7.9892E+02 -7.9893E+02 -7.9895E+02 -7.9898E+02 -7.9901E+02 -7.9906E+02 -7.9911E+02 -7.9916E+02 -7.9922E+02 -7.9929E+02 -7.9936E+02 -7.9942E+02 -7.9949E+02 -7.9956E+02 -7.9963E+02 -7.9969E+02 -7.9974E+02 -7.9979E+02 -7.9982E+02 -7.9985E+02 -7.9986E+02 -7.9985E+02 -7.9983E+02 -7.9978E+02 -7.9970E+02 -7.9959E+02 -7.9945E+02 -7.9927E+02 -7.9904E+02 -7.9876E+02 -7.9842E+02 -7.9802E+02 -7.9754E+02 -7.9698E+02 -7.9634E+02 -7.9560E+02 -7.9475E+02 -7.9379E+02 -7.9271E+02 -7.9149E+02 -7.9014E+02 -7.8863E+02 -7.8696E+02 -7.8513E+02 -7.8311E+02 -7.8092E+02 -7.7854E+02 -7.7596E+02 -7.7318E+02 -7.7020E+02 -7.6702E+02 -7.6364E+02 -7.6006E+02 -7.5629E+02 -7.5234E+02 -7.4821E+02 -7.4392E+02 -7.3948E+02 -7.3491E+02 -7.3024E+02 -7.2547E+02 -7.2064E+02 -7.1577E+02 -7.1089E+02 -7.0603E+02 -7.0121E+02 -6.9647E+02 -6.9183E+02 -6.8733E+02 -6.8299E+02 -6.7884E+02 -6.7491E+02 -6.7122E+02 -6.6778E+02 -6.6461E+02 -6.6172E+02 -6.5911E+02 -6.5679E+02 -6.5476E+02 -6.5301E+02 -6.5152E+02 -6.5029E+02 -6.4930E+02 -6.4853E+02 -6.4796E+02 -6.4758E+02 -6.4736E+02 -6.4728E+02 -6.4734E+02 -6.4750E+02 -6.4776E+02 -6.4809E+02 -6.4850E+02 -6.4898E+02 -6.4951E+02 -6.5009E+02 -6.5073E+02 -6.5143E+02 -6.5220E+02 -6.5304E+02 -6.5399E+02 -6.5505E+02 -6.5624E+02 -6.5760E+02 -6.5914E+02 -6.6090E+02 -6.6288E+02 -6.6512E+02 -6.6764E+02 -6.7043E+02 -6.7350E+02 -6.7686E+02 -6.8047E+02 -6.8433E+02 -6.8840E+02 -6.9265E+02 -6.9704E+02 -7.0152E+02 -7.0602E+02 -7.1055E+02 -7.1506E+02 -7.1949E+02 -7.2378E+02 -7.2779E+02 -7.3208E+02 -7.3613E+02 -7.3995E+02 -7.4326E+02 -7.4539E+02
-8.0066E+02 -8.0069E+02 -8.0070E+02 -8.0070E+02 -8.0070E+02 -8.0068E+02 -8.0068E+02 -8.0067E+02 -8.0065E+02 -8.0063E+02 -8.0060E+02 -8.0057E+02 -8.0054E+02 -8.0051E+02 -8.0047E+02 -8.0043E+02 -8.0038E+02 -8.0034E+02 -8.0029E+02 -8.0024E+02 -8.0019E+02 -8.0014E+02 -8.0008E+02 -8.0003E+02 -7.9998E+02 -7.9993E+02 -7.9988E+02 -7.9983E+02 -7.9978E+02 -7.9973E+02 -7.9968E+02 -7.9964E+02 -7.9959E+02 -7.9955E+02 -7.9951E+02 -7.9946E+02 -7.9942E+02 -7.9938E+02 -7.9934E+02 -7.9930E+02 -7.9925E+02 -7.9921E+02 -7.9917E+02 -7.9913E+02 -7.9910E+02 -7.9906E+02 -7.9903E+02 -7.9901E+02 -7.9899E+02 -7.9897E+02 -7.9896E+02 -7.9897E+02 -7.9898E+02 -7.9899E+02 -7.9902E+02 -7.9906E+02 -7.9910E+02 -7.9915E+02 -7.9921E+02 -7.9928E+02 -7.9935E+02 -7.9943E+02 -7.9950E+02 -7.9958E+02 -7.9966E+02 -7.9974E+02 -7.9981E+02 -7.9988E+02 -7.9995E+02 -8.0000E+02 -8.0004E+02 -8.0006E+02 -8.0007E+02 -8.0006E+02 -8.0002E+02 -7.9995E+02 -7.9985E+02 -7.9971E+02 -7.9953E+02 -7.9931E+02 -7.9902E+02 -7.9868E+02 -7.9827E+02 -7.9779E+02 -7.9722E+02 -7.9657E+02 -7.9582E+02 -7.9496E+02 -7.9399E+02 -7.9289E+02 -7.9166E+02 -7.9028E+02 -7.8876E+02 -7.8707E+02 -7.8521E+02 -7.8318E+02 -7.8096E+02 -7.7855E+02 -7.7594E+02 -7.7313E+02 -7.7012E+02 -7.6690E+02 -7.6349E+02 -7.5987E+02 -7.5607E+02 -7.5208E+02 -7.4791E+02 -7.4359E+02 -7.3912E+02 -7.3452E+02 -7.2981E+02 -7.2501E+02 -7.2015E+02 -7.1526E+02 -7.1036E+02 -7.0547E+02 -7.0064E+02 -6.9588E+02 -6.9124E+02 -6.8673E+02 -6.8240E+02 -6.7825E+02 -6.7433E+02 -6.7065E+02 -6.6722E+02 -6.6407E+02 -6.6120E+02 -6.5862E+02 -6.5632E+02 -6.5431E+02 -6.5257E+02 -6.5110E+02 -6.4988E+02 -6.4890E+02 -6.4814E+02 -6.4758E+02 -6.4720E+02 -6.4699E+02 -6.4691E+02 -6.4696E+02 -6.4712E+02 -6.4737E+02 -6.4770E+02 -6.4810E+02 -6.4857E+02 -6.4909E+02 -6.4967E+02 -6.5031E+02 -6.5101E+02 -6.5178E+02 -6.5263E+02 -6.5358E+02 -6.5465E+02 -6.5587E+02 -6.5724E+02 -6.5881E+02 -6.6059E+02 -6.6261E+02 -6.6488E+02 -6.6743E+02 -6.7027E+02 -6.7339E+02 -6.7679E+02 -6.8046E+02 -6.8438E+02 -6.8851E+02 -6.9283E+02 -6.9729E+02 -7.0185E+02 -7.0644E+02 -7.1106E+02 -7.1567E+02 -7.2022E+02 -7.2462E+02 -7.2876E+02 -7.3318E+02 -7.3737E+02 -7.4133E+02 -7.4481E+02 -7.4716E+02
-8.0085E+02 -8.0088E+02 -8.0090E+02 -8.0090E+02 -8.0089E+02 -8.0088E+02 -8.0088E+02 -8.0087E+02 -8.0085E+02 -8.0083E+02 -8.0080E+02 -8.0077E+02 -8.0074E+02 -8.0070E+02 -8.0066E+02 -8.0062E+02 -8.0057E+02 -8.0052E+02 -8.0047E+02 -8.0042E+02 -8.0036E+02 -8.0031E+02 -8.0025E+02 -8.0019E+02 -8.0014E+02 -8.0008E+02 -8.0003E+02 -7.9997E+02 -7.9992E+02 -7.9987E+02 -7.9982E+02 -7.9977E+02 -7.9972E+02 -7.9968E+02 -7.9963E+02 -7.9958E+02 -7.9954E+02 -7.9949E+02 -7.9944E+02 -7.9940E+02 -7.9935E+02 -7.9931E+02 -7.9926E+02 -7.9922E+02 -7.9917E+02 -7.9913E+02 -7.9910E+02 -7.9907E+02 -7.9904E+02 -7.9903E+02 -7.9902E+02 -7.9901E+02 -7.9902E+02 -7.9904E+02 -7.9906E+02 -7.9910E+02 -7.9915E+02 -7.9920E+02 -7.9926E+02 -7.9933E+02 -7.9941E+02 -7.9949E+02 -7.9958E+02 -7.9967E+02 -7.9977E+02 -7.9986E+02 -7.9995E+02 -8.0003E+02 -8.0011E+02 -8.0018E+02 -8.0024E+02 -8.0028E+02 -8.0030E+02 -8.0030E+02 -8.0028E+02 -8.0022E+02 -8.0013E+02 -8.0000E+02 -7.9982E+02 -7.9959E+02 -7.9931E+02 -7.9896E+02 -7.9855E+02 -7.9806E+02 -7.9748E+02 -7.9682E+02 -7.9605E+02 -7.9518E+02 -7.9419E+02 -7.9308E+02 -7.9183E+02 -7.9044E+02 -7.8889E+02 -7.8718E+02 -7.8530E+02 -7.8324E+02 -7.8099E+02 -7.7855E+02 -7.7591E+02 -7.7306E+02 -7.7002E+02 -7.6677E+02 -7.6331E+02 -7.5966E+02 -7.5582E+02 -7.5179E+02 -7.4759E+02 -7.4323E+02 -7.3872E+02 -7.3408E+02 -7.2934E+02 -7.2452E+02 -7.1963E+02 -7.1471E+02 -7.0978E+02 -7.0488E+02 -7.0003E+02 -6.9526E+02 -6.9061E+02 -6.8611E+02 -6.8177E+02 -6.7764E+02 -6.7373E+02 -6.7006E+02 -6.6666E+02 -6.6352E+02 -6.6068E+02 -6.5812E+02 -6.5584E+02 -6.5385E+02 -6.5214E+02 -6.5069E+02 -6.4949E+02 -6.4852E+02 -6.4777E+02 -6.4722E+02 -6.4685E+02 -6.4663E+02 -6.4655E+02 -6.4660E+02 -6.4675E+02 -6.4700E+02 -6.4732E+02 -6.4772E+02 -6.4818E+02 -6.4870E+02 -6.4927E+02 -6.4991E+02 -6.5061E+02 -6.5138E+02 -6.5224E+02 -6.5321E+02 -6.5429E+02 -6.5552E+02 -6.5692E+02 -6.5851E+02 -6.6032E+02 -6.6237E+02 -6.6468E+02 -6.6727E+02 -6.7015E+02 -6.7332E+02 -6.7677E+02 -6.8050E+02 -6.8447E+02 -6.8867E+02 -6.9305E+02 -6.9758E+02 -7.0222E+02 -7.0689E+02 -7.1160E+02 -7.1630E+02 -7.2094E+02 -7.2545E+02 -7.2971E+02 -7.3423E+02 -7.3854E+02 -7.4264E+02 -7.4627E+02 -7.4880E+02
-8.0104E+02 -8.0108E+02 -8.0109E+02 -8.0110E+02 -8.0110E+02 -8.0109E+02 -8.0109E+02 -8.0108E+02 -8.0106E+02 -8.0104E+02 -8.0101E+02 -8.0098E+02 -8.0095E+02 -8.0091E+02 -8.0086E+02 -8.0082E+02 -8.0077E+02 -8.0072E+02 -8.0066E+02 -8.0060E+02 -8.0055E+02 -8.0049E+02 -8.0043E+02 -8.0037E+02 -8.0031E+02 -8.0025E+02 -8.0019E+02 -8.0013E+02 -8.0007E+02 -8.0002E+02 -7.9996E+02 -7.9991E+02 -7.9986E+02 -7.9981E+02 -7.9976E+02 -7.9971E+02 -7.9966E+02 -7.9961E+02 -7.9955E+02 -7.9950E+02 -7.9945E+02 -7.9940E+02 -7.9935E+02 -7.9930E+02 -7.9925E+02 -7.9921E+02 -7.9917E+02 -7.9913E+02 -7.9910E+02 -7.9908E+02 -7.9906E+02 -7.9906E+02 -7.9906E+02 -7.9908E+02 -7.9910E+02 -7.9914E+02 -7.9919E+02 -7.9924E+02 -7.9931E+02 -7.9939E+02 -7.9947E+02 -7.9957E+02 -7.9966E+02 -7.9977E+02 -7.9987E+02 -7.9998E+02 -8.0009E+02 -8.0019E+02 -8.0029E+02 -8.0038E+02 -8.0045E+02 -8.0051E+02 -8.0055E+02 -8.0057E+02 -8.0055E+02 -8.0051E+02 -8.0042E+02 -8.0030E+02 -8.0012E+02 -7.9990E+02 -7.9961E+02 -7.9926E+02 -7.9884E+02 -7.9834E+02 -7.9776E+02 -7.9708E+02 -7.9630E+02 -7.9541E+02 -7.9441E+02 -7.9327E+02 -7.9200E+02 -7.9059E+02 -7.8902E+02 -7.8728E+02 -7.8538E+02 -7.8329E+02 -7.8101E+02 -7.7854E+02 -7.7586E+02 -7.7298E+02 -7.6990E+02 -7.6661E+02 -7.6312E+02 -7.5943E+02 -7.5554E+02 -7.5148E+02 -7.4723E+02 -7.4283E+02 -7.3829E+02 -7.3361E+02 -7.2884E+02 -7.2398E+02 -7.1906E+02 -7.1411E+02 -7.0916E+02 -7.0424E+02 -6.9938E+02 -6.9460E+02 -6.8995E+02 -6.8544E+02 -6.8111E+02 -6.7699E+02 -6.7309E+02 -6.6945E+02 -6.6606E+02 -6.6296E+02 -6.6013E+02 -6.5760E+02 -6.5535E+02 -6.5339E+02 -6.5170E+02 -6.5027E+02 -6.4909E+02 -6.4814E+02 -6.4741E+02 -6.4686E+02 -6.4650E+02 -6.4628E+02 -6.4621E+02 -6.4625E+02 -6.4640E+02 -6.4664E+02 -6.4696E+02 -6.4736E+02 -6.4781E+02 -6.4833E+02 -6.4890E+02 -6.4954E+02 -6.5024E+02 -6.5101E+02 -6.5188E+02 -6.5286E+02 -6.5395E+02 -6.5520E+02 -6.5662E+02 -6.5824E+02 -6.6008E+02 -6.6216E+02 -6.6451E+02 -6.6715E+02 -6.7007E+02 -6.7329E+02 -6.7680E+02 -6.8058E+02 -6.8461E+02 -6.8887E+02 -6.9332E+02 -6.9792E+02 -7.0262E+02 -7.0737E+02 -7.1216E+02 -7.1695E+02 -7.2168E+02 -7.2628E+02 -7.3064E+02 -7.3526E+02 -7.3967E+02 -7.4388E+02 -7.4763E+02 -7.5034E+02
-8.0123E+02 -8.0127E+02 -8.0129E+02 -8.0130E+02 -8.0130E+02 -8.0130E+02 -8.0130E+02 -8.0129E+02 -8.0127E+02 -8.0125E+02 -8.0123E+02 -8.0120E+02 -8.0116E+02 -8.0112E+02 -8.0107E+02 -8.0103E+02 -8.0097E+02 -8.0092E+02 -8.0086E+02 -8.0080E+02 -8.0074E+02 -8.0068E+02 -8.0061E+02 -8.0055E+02 -8.0048E+02 -8.0042E+02 -8.0036E+02 -8.0030E+02 -8.0024E+02 -8.0018E+02 -8.0012E+02 -8.0006E+02 -8.0000E+02 -7.9995E+02 -7.9989E+02 -7.9984E+02 -7.9978E+02 -7.9972E+02 -7.9967E+02 -7.9961E+02 -7.9955E+02 -7.9949E+02 -7.9944E+02 -7.9938E+02 -7.9933E+02 -7.9928E+02 -7.9923E+02 -7.9919E+02 -7.9915E+02 -7.9913E+02 -7.9911E+02 -7.9910E+02 -7.9910E+02 -7.9912E+02 -7.9914E+02 -7.9918E+02 -7.9923E+02 -7.9929E+02 -7.9936E+02 -7.9944E+02 -7.9953E+02 -7.9964E+02 -7.9975E+02 -7.9986E+02 -7.9998E+02 -8.0011E+02 -8.0023E+02 -8.0036E+02 -8.0047E+02 -8.0058E+02 -8.0067E+02 -8.0075E+02 -8.0081E+02 -8.0084E+02 -8.0084E+02 -8.0081E+02 -8.0074E+02 -8.0062E+02 -8.0045E+02 -8.0022E+02 -7.9993E+02 -7.9958E+02 -7.9915E+02 -7.9864E+02 -7.9804E+02 -7.9735E+02 -7.9655E+02 -7.9565E+02 -7.9462E+02 -7.9347E+02 -7.9218E+02 -7.9074E+02 -7.8915E+02 -7.8738E+02 -7.8545E+02 -7.8333E+02 -7.8102E+02 -7.7851E+02 -7.7580E+02 -7.7289E+02 -7.6977E+02 -7.6644E+02 -7.6290E+02 -7.5917E+02 -7.5524E+02 -7.5113E+02 -7.4685E+02 -7.4240E+02 -7.3781E+02 -7.3310E+02 -7.2829E+02 -7.2340E+02 -7.1845E+02 -7.1347E+02 -7.0850E+02 -7.0356E+02 -6.9868E+02 -6.9389E+02 -6.8924E+02 -6.8473E+02 -6.8041E+02 -6.7630E+02 -6.7242E+02 -6.6880E+02 -6.6544E+02 -6.6236E+02 -6.5957E+02 -6.5706E+02 -6.5484E+02 -6.5291E+02 -6.5125E+02 -6.4984E+02 -6.4869E+02 -6.4776E+02 -6.4703E+02 -6.4650E+02 -6.4614E+02 -6.4594E+02 -6.4586E+02 -6.4591E+02 -6.4606E+02 -6.4630E+02 -6.4661E+02 -6.4700E+02 -6.4745E+02 -6.4797E+02 -6.4854E+02 -6.4918E+02 -6.4988E+02 -6.5066E+02 -6.5154E+02 -6.5252E+02 -6.5364E+02 -6.5490E+02 -6.5635E+02 -6.5799E+02 -6.5986E+02 -6.6199E+02 -6.6438E+02 -6.6706E+02 -6.7003E+02 -6.7330E+02 -6.7687E+02 -6.8071E+02 -6.8480E+02 -6.8913E+02 -6.9364E+02 -6.9831E+02 -7.0308E+02 -7.0790E+02 -7.1276E+02 -7.1762E+02 -7.2243E+02 -7.2712E+02 -7.3157E+02 -7.3627E+02 -7.4077E+02 -7.4507E+02 -7.4894E+02 -7.5178E+02
-8.0142E+02 -8.0147E+02 -8.0150E+02 -8.0151E+02 -8.0151E+02 -8.0151E+02 -8.0151E+02 -8.0150E+02 -8.0149E+02 -8.0147E+02 -8.0144E+02 -8.0141E+02 -8.0138E+02 -8.0134E+02 -8.0129E+02 -8.0124E+02 -8.0119E+02 -8.0113E+02 -8.0107E+02 -8.0100E+02 -8.0094E+02 -8.0087E+02 -8.0081E+02 -8.0074E+02 -8.0067E+02 -8.0060E+02 -8.0054E+02 -8.0047E+02 -8.0041E+02 -8.0034E+02 -8.0028E+02 -8.0022E+02 -8.0015E+02 -8.0009E+02 -8.0003E+02 -7.9997E+02 -7.9991E+02 -7.9984E+02 -7.9978E+02 -7.9972E+02 -7.9965E+02 -7.9959E+02 -7.9952E+02 -7.9946E+02 -7.9940E+02 -7.9935E+02 -7.9929E+02 -7.9925E+02 -7.9921E+02 -7.9918E+02 -7.9915E+02 -7.9914E+02 -7.9914E+02 -7.9915E+02 -7.9918E+02 -7.9921E+02 -7.9926E+02 -7.9933E+02 -7.9940E+02 -7.9949E+02 -7.9959E+02 -7.9971E+02 -7.9983E+02 -7.9996E+02 -8.0010E+02 -8.0024E+02 -8.0038E+02 -8.0053E+02 -8.0066E+02 -8.0079E+02 -8.0091E+02 -8.0101E+02 -8.0108E+02 -8.0113E+02 -8.0115E+02 -8.0113E+02 -8.0106E+02 -8.0095E+02 -8.0079E+02 -8.0056E+02 -8.0027E+02 -7.9991E+02 -7.9947E+02 -7.9895E+02 -7.9834E+02 -7.9763E+02 -7.9682E+02 -7.9589E+02 -7.9484E+02 -7.9367E+02 -7.9235E+02 -7.9089E+02 -7.8927E+02 -7.8748E+02 -7.8551E+02 -7.8336E+02 -7.8101E+02 -7.7847E+02 -7.7572E+02 -7.7277E+02 -7.6961E+02 -7.6624E+02 -7.6266E+02 -7.5888E+02 -7.5491E+02 -7.5076E+02 -7.4643E+02 -7.4194E+02 -7.3731E+02 -7.3255E+02 -7.2770E+02 -7.2277E+02 -7.1779E+02 -7.1278E+02 -7.0778E+02 -7.0282E+02 -6.9793E+02 -6.9314E+02 -6.8848E+02 -6.8398E+02 -6.7967E+02 -6.7557E+02 -6.7171E+02 -6.6811E+02 -6.6477E+02 -6.6172E+02 -6.5896E+02 -6.5649E+02 -6.5431E+02 -6.5240E+02 -6.5077E+02 -6.4939E+02 -6.4826E+02 -6.4735E+02 -6.4665E+02 -6.4613E+02 -6.4578E+02 -6.4558E+02 -6.4551E+02 -6.4556E+02 -6.4571E+02 -6.4595E+02 -6.4627E+02 -6.4665E+02 -6.4710E+02 -6.4762E+02 -6.4819E+02 -6.4883E+02 -6.4953E+02 -6.5033E+02 -6.5121E+02 -6.5221E+02 -6.5334E+02 -6.5463E+02 -6.5610E+02 -6.5777E+02 -6.5968E+02 -6.6184E+02 -6.6428E+02 -6.6701E+02 -6.7003E+02 -6.7336E+02 -6.7698E+02 -6.8088E+02 -6.8504E+02 -6.8943E+02 -6.9401E+02 -6.9875E+02 -7.0358E+02 -7.0847E+02 -7.1341E+02 -7.1833E+02 -7.2321E+02 -7.2797E+02 -7.3251E+02 -7.3728E+02 -7.4186E+02 -7.4624E+02 -7.5019E+02 -7.5315E+02
-8.0161E+02 -8.0167E+02 -8.0170E+02 -8.0172E+02 -8.0172E+02 -8.0172E+02 -8.0173E+02 -8.0172E+02 -8.0171E+02 -8.0169E+02 -8.0167E+02 -8.0164E+02 -8.0160E+02 -8.0156E+02 -8.0151E+02 -8.0146E+02 -8.0140E+02 -8.0134E+02 -8.0128E+02 -8.0122E+02 -8.0115E+02 -8.0108E+02 -8.0101E+02 -8.0094E+02 -8.0087E+02 -8.0079E+02 -8.0072E+02 -8.0065E+02 -8.0058E+02 -8.0051E+02 -8.0044E+02 -8.0038E+02 -8.0031E+02 -8.0024E+02 -8.0017E+02 -8.0010E+02 -8.0004E+02 -7.9997E+02 -7.9990E+02 -7.9983E+02 -7.9975E+02 -7.9968E+02 -7.9961E+02 -7.9954E+02 -7.9948E+02 -7.9941E+02 -7.9936E+02 -7.9930E+02 -7.9926E+02 -7.9922E+02 -7.9919E+02 -7.9918E+02 -7.9918E+02 -7.9919E+02 -7.9921E+02 -7.9925E+02 -7.9930E+02 -7.9937E+02 -7.9945E+02 -7.9955E+02 -7.9966E+02 -7.9978E+02 -7.9992E+02 -8.0006E+02 -8.0022E+02 -8.0038E+02 -8.0054E+02 -8.0070E+02 -8.0086E+02 -8.0101E+02 -8.0115E+02 -8.0127E+02 -8.0136E+02 -8.0143E+02 -8.0146E+02 -8.0146E+02 -8.0140E+02 -8.0130E+02 -8.0114E+02 -8.0091E+02 -8.0062E+02 -8.0025E+02 -7.9980E+02 -7.9927E+02 -7.9864E+02 -7.9791E+02 -7.9708E+02 -7.9613E+02 -7.9506E+02 -7.9386E+02 -7.9252E+02 -7.9103E+02 -7.8938E+02 -7.8756E+02 -7.8556E+02 -7.8337E+02 -7.8100E+02 -7.7842E+02 -7.7563E+02 -7.7264E+02 -7.6943E+02 -7.6602E+02 -7.6240E+02 -7.5857E+02 -7.5455E+02 -7.5035E+02 -7.4597E+02 -7.4144E+02 -7.3676E+02 -7.3197E+02 -7.2707E+02 -7.2210E+02 -7.1708E+02 -7.1205E+02 -7.0702E+02 -7.0204E+02 -6.9713E+02 -6.9233E+02 -6.8767E+02 -6.8317E+02 -6.7887E+02 -6.7479E+02 -6.7095E+02 -6.6737E+02 -6.6407E+02 -6.6105E+02 -6.5832E+02 -6.5589E+02 -6.5374E+02 -6.5186E+02 -6.5026E+02 -6.4892E+02 -6.4781E+02 -6.4692E+02 -6.4624E+02 -6.4574E+02 -6.4540E+02 -6.4521E+02 -6.4515E+02 -6.4521E+02 -6.4536E+02 -6.4560E+02 -6.4592E+02 -6.4630E+02 -6.4675E+02 -6.4727E+02 -6.4784E+02 -6.4848E+02 -6.4920E+02 -6.5000E+02 -6.5089E+02 -6.5191E+02 -6.5306E+02 -6.5437E+02 -6.5586E+02 -6.5757E+02 -6.5951E+02 -6.6172E+02 -6.6420E+02 -6.6698E+02 -6.7006E+02 -6.7345E+02 -6.7714E+02 -6.8110E+02 -6.8533E+02 -6.8978E+02 -6.9443E+02 -6.9923E+02 -7.0414E+02 -7.0909E+02 -7.1409E+02 -7.1909E+02 -7.2403E+02 -7.2885E+02 -7.3345E+02 -7.3829E+02 -7.4293E+02 -7.4738E+02 -7.5140E+02 -7.5446E+02
-8.0181E+02 -8.0187E+02 -8.0191E+02 -8.0193E+02 -8.0194E+02 -8.0194E+02 -8.0195E+02 -8.0194E+02 -8.0193E+02 -8.0192E+02 -8.0189E+02 -8.0186E+02 -8.0183E+02 -8.0179E+02 -8.0174E+02 -8.0169E+02 -8.0163E+02 -8.0157E+02 -8.0150E+02 -8.0143E+02 -8.0136E+02 -8.0129E+02 -8.0122E+02 -8.0114E+02 -8.0107E+02 -8.0099E+02 -8.0091E+02 -8.0084E+02 -8.0076E+02 -8.0069E+02 -8.0062E+02 -8.0054E+02 -8.0047E+02 -8.0039E+02 -8.0032E+02 -8.0024E+02 -8.0017E+02 -8.0009E+02 -8.0001E+02 -7.9994E+02 -7.9986E+02 -7.9978E+02 -7.9970E+02 -7.9962E+02 -7.9955E+02 -7.9948E+02 -7.9942E+02 -7.9936E+02 -7.9931E+02 -7.9927E+02 -7.9924E+02 -7.9922E+02 -7.9921E+02 -7.9922E+02 -7.9924E+02 -7.9928E+02 -7.9934E+02 -7.9941E+02 -7.9950E+02 -7.9960E+02 -7.9972E+02 -7.9985E+02 -8.0000E+02 -8.0016E+02 -8.0033E+02 -8.0051E+02 -8.0070E+02 -8.0088E+02 -8.0106E+02 -8.0124E+02 -8.0140E+02 -8.0154E+02 -8.0166E+02 -8.0174E+02 -8.0179E+02 -8.0180E+02 -8.0176E+02 -8.0166E+02 -8.0150E+02 -8.0128E+02 -8.0098E+02 -8.0060E+02 -8.0014E+02 -7.9959E+02 -7.9895E+02 -7.9821E+02 -7.9735E+02 -7.9638E+02 -7.9528E+02 -7.9406E+02 -7.9269E+02 -7.9116E+02 -7.8948E+02 -7.8763E+02 -7.8560E+02 -7.8338E+02 -7.8096E+02 -7.7834E+02 -7.7552E+02 -7.7248E+02 -7.6924E+02 -7.6578E+02 -7.6211E+02 -7.5824E+02 -7.5417E+02 -7.4992E+02 -7.4549E+02 -7.4091E+02 -7.3618E+02 -7.3134E+02 -7.2640E+02 -7.2139E+02 -7.1634E+02 -7.1127E+02 -7.0622E+02 -7.0121E+02 -6.9629E+02 -6.9148E+02 -6.8681E+02 -6.8232E+02 -6.7803E+02 -6.7396E+02 -6.7014E+02 -6.6659E+02 -6.6332E+02 -6.6033E+02 -6.5764E+02 -6.5524E+02 -6.5313E+02 -6.5129E+02 -6.4972E+02 -6.4841E+02 -6.4733E+02 -6.4647E+02 -6.4580E+02 -6.4532E+02 -6.4500E+02 -6.4482E+02 -6.4477E+02 -6.4484E+02 -6.4499E+02 -6.4524E+02 -6.4556E+02 -6.4595E+02 -6.4640E+02 -6.4692E+02 -6.4750E+02 -6.4814E+02 -6.4886E+02 -6.4967E+02 -6.5058E+02 -6.5161E+02 -6.5278E+02 -6.5411E+02 -6.5564E+02 -6.5738E+02 -6.5936E+02 -6.6161E+02 -6.6415E+02 -6.6698E+02 -6.7012E+02 -6.7357E+02 -6.7732E+02 -6.8136E+02 -6.8565E+02 -6.9018E+02 -6.9489E+02 -6.9976E+02 -7.0474E+02 -7.0976E+02 -7.1482E+02 -7.1987E+02 -7.2488E+02 -7.2976E+02 -7.3441E+02 -7.3931E+02 -7.4400E+02 -7.4850E+02 -7.5257E+02 -7.5570E+02
-8.0200E+02 -8.0207E+02 -8.0211E+02 -8.0213E+02 -8.0215E+02 -8.0215E+02 -8.0217E+02 -8.0217E+02 -8.0216E+02 -8.0214E+02 -8.0212E+02 -8.0209E+02 -8.0206E+02 -8.0202E+02 -8.0197E+02 -8.0192E+02 -8.0186E+02 -8.0179E+02 -8.0173E+02 -8.0166E+02 -8.0158E+02 -8.0151E+02 -8.0143E+02 -8.0135E+02 -8.0127E+02 -8.0119E+02 -8.0111E+02 -8.0103E+02 -8.0095E+02 -8.0087E+02 -8.0079E+02 -8.0071E+02 -8.0063E+02 -8.0055E+02 -8.0047E+02 -8.0039E+02 -8.0031E+02 -8.0022E+02 -8.0014E+02 -8.0005E+02 -7.9996E+02 -7.9988E+02 -7.9979E+02 -7.9971E+02 -7.9963E+02 -7.9955E+02 -7.9948E+02 -7.9941E+02 -7.9936E+02 -7.9931E+02 -7.9928E+02 -7.9926E+02 -7.9925E+02 -7.9925E+02 -7.9928E+02 -7.9932E+02 -7.9937E+02 -7.9945E+02 -7.9954E+02 -7.9965E+02 -7.9978E+02 -7.9993E+02 -8.0009E+02 -8.0027E+02 -8.0046E+02 -8.0066E+02 -8.0086E+02 -8.0107E+02 -8.0127E+02 -8.0147E+02 -8.0165E+02 -8.0182E+02 -8.0196E+02 -8.0206E+02 -8.0213E+02 -8.0215E+02 -8.0212E+02 -8.0203E+02 -8.0187E+02 -8.0165E+02 -8.0135E+02 -8.0096E+02 -8.0049E+02 -7.9993E+02 -7.9927E+02 -7.9850E+02 -7.9762E+02 -7.9662E+02 -7.9550E+02 -7.9425E+02 -7.9285E+02 -7.9129E+02 -7.8958E+02 -7.8769E+02 -7.8563E+02 -7.8337E+02 -7.8092E+02 -7.7826E+02 -7.7539E+02 -7.7232E+02 -7.6902E+02 -7.6552E+02 -7.6180E+02 -7.5788E+02 -7.5377E+02 -7.4946E+02 -7.4498E+02 -7.4035E+02 -7.3558E+02 -7.3068E+02 -7.2570E+02 -7.2064E+02 -7.1555E+02 -7.1045E+02 -7.0537E+02 -7.0034E+02 -6.9540E+02 -6.9058E+02 -6.8590E+02 -6.8141E+02 -6.7713E+02 -6.7308E+02 -6.6929E+02 -6.6577E+02 -6.6252E+02 -6.5957E+02 -6.5692E+02 -6.5455E+02 -6.5248E+02 -6.5068E+02 -6.4915E+02 -6.4786E+02 -6.4681E+02 -6.4598E+02 -6.4534E+02 -6.4488E+02 -6.4458E+02 -6.4442E+02 -6.4438E+02 -6.4445E+02 -6.4462E+02 -6.4487E+02 -6.4519E+02 -6.4559E+02 -6.4604E+02 -6.4657E+02 -6.4715E+02 -6.4780E+02 -6.4853E+02 -6.4935E+02 -6.5027E+02 -6.5132E+02 -6.5251E+02 -6.5387E+02 -6.5543E+02 -6.5720E+02 -6.5923E+02 -6.6152E+02 -6.6411E+02 -6.6700E+02 -6.7020E+02 -6.7372E+02 -6.7754E+02 -6.8164E+02 -6.8601E+02 -6.9060E+02 -6.9539E+02 -7.0033E+02 -7.0537E+02 -7.1046E+02 -7.1558E+02 -7.2069E+02 -7.2575E+02 -7.3068E+02 -7.3538E+02 -7.4032E+02 -7.4506E+02 -7.4960E+02 -7.5371E+02 -7.5688E+02
-8.0219E+02 -8.0227E+02 -8.0232E+02 -8.0234E+02 -8.0236E+02 -8.0237E+02 -8.0239E+02 -8.0239E+02 -8.0239E+02 -8.0237E+02 -8.0235E+02 -8.0233E+02 -8.0229E+02 -8.0225E+02 -8.0220E+02 -8.0215E+02 -8.0209E+02 -8.0202E+02 -8.0196E+02 -8.0188E+02 -8.0181E+02 -8.0173E+02 -8.0165E+02 -8.0157E+02 -8.0149E+02 -8.0140E+02 -8.0132E+02 -8.0123E+02 -8.0115E+02 -8.0106E+02 -8.0098E+02 -8.0089E+02 -8.0080E+02 -8.0072E+02 -8.0063E+02 -8.0054E+02 -8.0045E+02 -8.0035E+02 -8.0026E+02 -8.0017E+02 -8.0007E+02 -7.9998E+02 -7.9988E+02 -7.9979E+02 -7.9970E+02 -7.9962E+02 -7.9954E+02 -7.9947E+02 -7.9941E+02 -7.9936E+02 -7.9932E+02 -7.9929E+02 -7.9928E+02 -7.9929E+02 -7.9931E+02 -7.9935E+02 -7.9941E+02 -7.9949E+02 -7.9959E+02 -7.9971E+02 -7.9985E+02 -8.0001E+02 -8.0018E+02 -8.0038E+02 -8.0058E+02 -8.0080E+02 -8.0103E+02 -8.0126E+02 -8.0148E+02 -8.0171E+02 -8.0191E+02 -8.0210E+02 -8.0226E+02 -8.0239E+02 -8.0247E+02 -8.0251E+02 -8.0249E+02 -8.0240E+02 -8.0225E+02 -8.0202E+02 -8.0172E+02 -8.0133E+02 -8.0084E+02 -8.0026E+02 -7.9958E+02 -7.9879E+02 -7.9789E+02 -7.9687E+02 -7.9572E+02 -7.9443E+02 -7.9300E+02 -7.9141E+02 -7.8966E+02 -7.8774E+02 -7.8564E+02 -7.8335E+02 -7.8086E+02 -7.7816E+02 -7.7525E+02 -7.7213E+02 -7.6879E+02 -7.6524E+02 -7.6148E+02 -7.5751E+02 -7.5334E+02 -7.4898E+02 -7.4445E+02 -7.3977E+02 -7.3494E+02 -7.3000E+02 -7.2496E+02 -7.1986E+02 -7.1473E+02 -7.0959E+02 -7.0448E+02 -6.9942E+02 -6.9446E+02 -6.8963E+02 -6.8496E+02 -6.8047E+02 -6.7620E+02 -6.7216E+02 -6.6839E+02 -6.6489E+02 -6.6168E+02 -6.5877E+02 -6.5615E+02 -6.5382E+02 -6.5179E+02 -6.5003E+02 -6.4853E+02 -6.4728E+02 -6.4627E+02 -6.4546E+02 -6.4485E+02 -6.4441E+02 -6.4413E+02 -6.4398E+02 -6.4396E+02 -6.4404E+02 -6.4422E+02 -6.4448E+02 -6.4481E+02 -6.4521E+02 -6.4568E+02 -6.4621E+02 -6.4680E+02 -6.4746E+02 -6.4820E+02 -6.4903E+02 -6.4997E+02 -6.5103E+02 -6.5224E+02 -6.5363E+02 -6.5522E+02 -6.5703E+02 -6.5910E+02 -6.6144E+02 -6.6408E+02 -6.6703E+02 -6.7030E+02 -6.7388E+02 -6.7777E+02 -6.8195E+02 -6.8639E+02 -6.9106E+02 -6.9592E+02 -7.0093E+02 -7.0604E+02 -7.1119E+02 -7.1637E+02 -7.2154E+02 -7.2664E+02 -7.3162E+02 -7.3636E+02 -7.4134E+02 -7.4611E+02 -7.5068E+02 -7.5481E+02 -7.5801E+02
-8.0238E+02 -8.0247E+02 -8.0252E+02 -8.0255E+02 -8.0258E+02 -8.0259E+02 -8.0261E+02 -8.0262E+02 -8.0261E+02 -8.0260E+02 -8.0259E+02 -8.0256E+02 -8.0253E+02 -8.0249E+02 -8.0244E+02 -8.0239E+02 -8.0233E+02 -8.0226E+02 -8.0219E+02 -8.0211E+02 -8.0204E+02 -8.0196E+02 -8.0187E+02 -8.0179E+02 -8.0170E+02 -8.0162E+02 -8.0153E+02 -8.0144E+02 -8.0135E+02 -8.0126E+02 -8.0116E+02 -8.0107E+02 -8.0098E+02 -8.0088E+02 -8.0079E+02 -8.0069E+02 -8.0059E+02 -8.0049E+02 -8.0039E+02 -8.0029E+02 -8.0018E+02 -8.0008E+02 -7.9998E+02 -7.9988E+02 -7.9978E+02 -7.9969E+02 -7.9961E+02 -7.9953E+02 -7.9946E+02 -7.9941E+02 -7.9936E+02 -7.9934E+02 -7.9932E+02 -7.9933E+02 -7.9935E+02 -7.9939E+02 -7.9945E+02 -7.9954E+02 -7.9964E+02 -7.9977E+02 -7.9992E+02 -8.0009E+02 -8.0028E+02 -8.0049E+02 -8.0071E+02 -8.0095E+02 -8.0120E+02 -8.0145E+02 -8.0170E+02 -8.0194E+02 -8.0218E+02 -8.0239E+02 -8.0257E+02 -8.0271E+02 -8.0282E+02 -8.0287E+02 -8.0286E+02 -8.0278E+02 -8.0263E+02 -8.0241E+02 -8.0209E+02 -8.0169E+02 -8.0119E+02 -8.0060E+02 -7.9990E+02 -7.9908E+02 -7.9815E+02 -7.9710E+02 -7.9592E+02 -7.9461E+02 -7.9314E+02 -7.9152E+02 -7.8974E+02 -7.8778E+02 -7.8564E+02 -7.8331E+02 -7.8078E+02 -7.7805E+02 -7.7510E+02 -7.7193E+02 -7.6855E+02 -7.6495E+02 -7.6114E+02 -7.5712E+02 -7.5290E+02 -7.4849E+02 -7.4390E+02 -7.3916E+02 -7.3428E+02 -7.2929E+02 -7.2420E+02 -7.1906E+02 -7.1388E+02 -7.0870E+02 -7.0355E+02 -6.9847E+02 -6.9349E+02 -6.8865E+02 -6.8397E+02 -6.7948E+02 -6.7522E+02 -6.7120E+02 -6.6745E+02 -6.6398E+02 -6.6080E+02 -6.5792E+02 -6.5534E+02 -6.5305E+02 -6.5106E+02 -6.4934E+02 -6.4788E+02 -6.4667E+02 -6.4568E+02 -6.4491E+02 -6.4433E+02 -6.4391E+02 -6.4365E+02 -6.4353E+02 -6.4352E+02 -6.4362E+02 -6.4380E+02 -6.4407E+02 -6.4442E+02 -6.4483E+02 -6.4530E+02 -6.4584E+02 -6.4644E+02 -6.4711E+02 -6.4786E+02 -6.4870E+02 -6.4966E+02 -6.5074E+02 -6.5197E+02 -6.5339E+02 -6.5501E+02 -6.5686E+02 -6.5897E+02 -6.6136E+02 -6.6406E+02 -6.6707E+02 -6.7040E+02 -6.7405E+02 -6.7801E+02 -6.8227E+02 -6.8678E+02 -6.9153E+02 -6.9647E+02 -7.0155E+02 -7.0673E+02 -7.1193E+02 -7.1718E+02 -7.2239E+02 -7.2754E+02 -7.3256E+02 -7.3733E+02 -7.4235E+02 -7.4715E+02 -7.5174E+02 -7.5588E+02 -7.5907E+02
-8.0257E+02 -8.0267E+02 -8.0272E+02 -8.0276E+02 -8.0279E+02 -8.0281E+02 -8.0283E+02 -8.0284E+02 -8.0284E+02 -8.0284E+02 -8.0282E+02 -8.0280E+02 -8.0277E+02 -8.0273E+02 -8.0268E+02 -8.0262E+02 -8.0256E+02 -8.0250E+02 -8.0243E+02 -8.0235E+02 -8.0227E+02 -8.0219E+02 -8.0210E+02 -8.0201E+02 -8.0192E+02 -8.0183E+02 -8.0174E+02 -8.0165E+02 -8.0155E+02 -8.0146E+02 -8.0136E+02 -8.0126E+02 -8.0116E+02 -8.0106E+02 -8.0095E+02 -8.0085E+02 -8.0074E+02 -8.0063E+02 -8.0052E+02 -8.0041E+02 -8.0030E+02 -8.0019E+02 -8.0008E+02 -7.9997E+02 -7.9987E+02 -7.9977E+02 -7.9968E+02 -7.9959E+02 -7.9952E+02 -7.9946E+02 -7.9941E+02 -7.9938E+02 -7.9936E+02 -7.9937E+02 -7.9939E+02 -7.9943E+02 -7.9950E+02 -7.9958E+02 -7.9969E+02 -7.9983E+02 -7.9999E+02 -8.0017E+02 -8.0037E+02 -8.0060E+02 -8.0084E+02 -8.0110E+02 -8.0137E+02 -8.0164E+02 -8.0192E+02 -8.0218E+02 -8.0244E+02 -8.0267E+02 -8.0288E+02 -8.0304E+02 -8.0316E+02 -8.0323E+02 -8.0323E+02 -8.0316E+02 -8.0301E+02 -8.0279E+02 -8.0247E+02 -8.0206E+02 -8.0154E+02 -8.0093E+02 -8.0021E+02 -7.9937E+02 -7.9842E+02 -7.9734E+02 -7.9612E+02 -7.9477E+02 -7.9328E+02 -7.9162E+02 -7.8981E+02 -7.8781E+02 -7.8564E+02 -7.8327E+02 -7.8070E+02 -7.7792E+02 -7.7493E+02 -7.7172E+02 -7.6830E+02 -7.6465E+02 -7.6079E+02 -7.5672E+02 -7.5244E+02 -7.4798E+02 -7.4334E+02 -7.3854E+02 -7.3361E+02 -7.2856E+02 -7.2342E+02 -7.1823E+02 -7.1301E+02 -7.0779E+02 -7.0260E+02 -6.9750E+02 -6.9249E+02 -6.8763E+02 -6.8294E+02 -6.7846E+02 -6.7420E+02 -6.7020E+02 -6.6647E+02 -6.6303E+02 -6.5988E+02 -6.5703E+02 -6.5449E+02 -6.5224E+02 -6.5029E+02 -6.4861E+02 -6.4719E+02 -6.4601E+02 -6.4506E+02 -6.4432E+02 -6.4377E+02 -6.4338E+02 -6.4315E+02 -6.4304E+02 -6.4305E+02 -6.4317E+02 -6.4337E+02 -6.4365E+02 -6.4401E+02 -6.4443E+02 -6.4491E+02 -6.4546E+02 -6.4607E+02 -6.4675E+02 -6.4751E+02 -6.4837E+02 -6.4934E+02 -6.5044E+02 -6.5170E+02 -6.5314E+02 -6.5480E+02 -6.5669E+02 -6.5884E+02 -6.6128E+02 -6.6403E+02 -6.6710E+02 -6.7050E+02 -6.7422E+02 -6.7826E+02 -6.8259E+02 -6.8718E+02 -6.9201E+02 -6.9702E+02 -7.0217E+02 -7.0742E+02 -7.1269E+02 -7.1798E+02 -7.2325E+02 -7.2845E+02 -7.3349E+02 -7.3829E+02 -7.4334E+02 -7.4816E+02 -7.5276E+02 -7.5689E+02 -7.6006E+02
-8.0277E+02 -8.0287E+02 -8.0293E+02 -8.0297E+02 -8.0301E+02 -8.0303E+02 -8.0305E+02 -8.0307E+02 -8.0308E+02 -8.0307E+02 -8.0306E+02 -8.0304E+02 -8.0301E+02 -8.0297E+02 -8.0292E+02 -8.0287E+02 -8.0281E+02 -8.0274E+02 -8.0267E+02 -8.0259E+02 -8.0251E+02 -8.0242E+02 -8.0233E+02 -8.0224E+02 -8.0215E+02 -8.0206E+02 -8.0196E+02 -8.0186E+02 -8.0176E+02 -8.0166E+02 -8.0156E+02 -8.0145E+02 -8.0134E+02 -8.0123E+02 -8.0112E+02 -8.0101E+02 -8.0090E+02 -8.0078E+02 -8.0066E+02 -8.0054E+02 -8.0042E+02 -8.0030E+02 -8.0018E+02 -8.0007E+02 -7.9996E+02 -7.9985E+02 -7.9975E+02 -7.9966E+02 -7.9958E+02 -7.9952E+02 -7.9946E+02 -7.9943E+02 -7.9941E+02 -7.9941E+02 -7.9943E+02 -7.9948E+02 -7.9954E+02 -7.9963E+02 -7.9975E+02 -7.9989E+02 -8.0006E+02 -8.0025E+02 -8.0047E+02 -8.0071E+02 -8.0097E+02 -8.0125E+02 -8.0154E+02 -8.0183E+02 -8.0213E+02 -8.0242E+02 -8.0270E+02 -8.0296E+02 -8.0318E+02 -8.0337E+02 -8.0351E+02 -8.0358E+02 -8.0360E+02 -8.0353E+02 -8.0339E+02 -8.0316E+02 -8.0284E+02 -8.0241E+02 -8.0189E+02 -8.0126E+02 -8.0051E+02 -7.9965E+02 -7.9867E+02 -7.9756E+02 -7.9632E+02 -7.9493E+02 -7.9340E+02 -7.9172E+02 -7.8986E+02 -7.8783E+02 -7.8562E+02 -7.8321E+02 -7.8061E+02 -7.7779E+02 -7.7476E+02 -7.7150E+02 -7.6803E+02 -7.6434E+02 -7.6043E+02 -7.5630E+02 -7.5198E+02 -7.4746E+02 -7.4277E+02 -7.3791E+02 -7.3292E+02 -7.2782E+02 -7.2263E+02 -7.1738E+02 -7.1211E+02 -7.0685E+02 -7.0163E+02 -6.9649E+02 -6.9147E+02 -6.8659E+02 -6.8189E+02 -6.7740E+02 -6.7315E+02 -6.6916E+02 -6.6545E+02 -6.6204E+02 -6.5892E+02 -6.5611E+02 -6.5360E+02 -6.5140E+02 -6.4948E+02 -6.4784E+02 -6.4646E+02 -6.4532E+02 -6.4441E+02 -6.4370E+02 -6.4318E+02 -6.4282E+02 -6.4261E+02 -6.4253E+02 -6.4256E+02 -6.4269E+02 -6.4291E+02 -6.4321E+02 -6.4358E+02 -6.4401E+02 -6.4451E+02 -6.4506E+02 -6.4569E+02 -6.4638E+02 -6.4716E+02 -6.4803E+02 -6.4902E+02 -6.5014E+02 -6.5143E+02 -6.5290E+02 -6.5458E+02 -6.5651E+02 -6.5870E+02 -6.6119E+02 -6.6400E+02 -6.6713E+02 -6.7059E+02 -6.7438E+02 -6.7850E+02 -6.8290E+02 -6.8757E+02 -6.9247E+02 -6.9756E+02 -7.0279E+02 -7.0810E+02 -7.1343E+02 -7.1878E+02 -7.2410E+02 -7.2933E+02 -7.3441E+02 -7.3923E+02 -7.4430E+02 -7.4913E+02 -7.5373E+02 -7.5786E+02 -7.6099E+02
-8.0296E+02 -8.0306E+02 -8.0313E+02 -8.0318E+02 -8.0322E+02 -8.0324E+02 -8.0328E+02 -8.0330E+02 -8.0331E+02 -8.0331E+02 -8.0330E+02 -8.0328E+02 -8.0325E+02 -8.0321E+02 -8.0316E+02 -8.0311E+02 -8.0305E+02 -8.0298E+02 -8.0291E+02 -8.0283E+02 -8.0275E+02 -8.0266E+02 -8.0257E+02 -8.0248E+02 -8.0238E+02 -8.0228E+02 -8.0218E+02 -8.0208E+02 -8.0197E+02 -8.0187E+02 -8.0176E+02 -8.0165E+02 -8.0153E+02 -8.0142E+02 -8.0130E+02 -8.0118E+02 -8.0106E+02 -8.0093E+02 -8.0080E+02 -8.0068E+02 -8.0055E+02 -8.0042E+02 -8.0029E+02 -8.0017E+02 -8.0005E+02 -7.9994E+02 -7.9983E+02 -7.9974E+02 -7.9965E+02 -7.9958E+02 -7.9952E+02 -7.9948E+02 -7.9946E+02 -7.9946E+02 -7.9948E+02 -7.9952E+02 -7.9959E+02 -7.9969E+02 -7.9981E+02 -7.9996E+02 -8.0013E+02 -8.0034E+02 -8.0057E+02 -8.0082E+02 -8.0110E+02 -8.0140E+02 -8.0171E+02 -8.0202E+02 -8.0235E+02 -8.0266E+02 -8.0296E+02 -8.0324E+02 -8.0349E+02 -8.0369E+02 -8.0384E+02 -8.0394E+02 -8.0396E+02 -8.0390E+02 -8.0376E+02 -8.0353E+02 -8.0320E+02 -8.0277E+02 -8.0223E+02 -8.0157E+02 -8.0081E+02 -7.9992E+02 -7.9891E+02 -7.9777E+02 -7.9650E+02 -7.9508E+02 -7.9352E+02 -7.9180E+02 -7.8991E+02 -7.8785E+02 -7.8560E+02 -7.8315E+02 -7.8050E+02 -7.7765E+02 -7.7457E+02 -7.7128E+02 -7.6776E+02 -7.6402E+02 -7.6006E+02 -7.5589E+02 -7.5151E+02 -7.4694E+02 -7.4219E+02 -7.3728E+02 -7.3223E+02 -7.2707E+02 -7.2183E+02 -7.1653E+02 -7.1121E+02 -7.0591E+02 -7.0065E+02 -6.9548E+02 -6.9042E+02 -6.8553E+02 -6.8082E+02 -6.7633E+02 -6.7208E+02 -6.6810E+02 -6.6441E+02 -6.6102E+02 -6.5793E+02 -6.5515E+02 -6.5268E+02 -6.5051E+02 -6.4863E+02 -6.4703E+02 -6.4569E+02 -6.4460E+02 -6.4372E+02 -6.4305E+02 -6.4256E+02 -6.4223E+02 -6.4204E+02 -6.4199E+02 -6.4204E+02 -6.4219E+02 -6.4243E+02 -6.4275E+02 -6.4313E+02 -6.4358E+02 -6.4409E+02 -6.4466E+02 -6.4529E+02 -6.4600E+02 -6.4679E+02 -6.4768E+02 -6.4869E+02 -6.4983E+02 -6.5114E+02 -6.5264E+02 -6.5435E+02 -6.5632E+02 -6.5856E+02 -6.6109E+02 -6.6395E+02 -6.6714E+02 -6.7067E+02 -6.7453E+02 -6.7872E+02 -6.8320E+02 -6.8794E+02 -6.9292E+02 -6.9808E+02 -7.0338E+02 -7.0876E+02 -7.1415E+02 -7.1955E+02 -7.2492E+02 -7.3019E+02 -7.3529E+02 -7.4012E+02 -7.4522E+02 -7.5006E+02 -7.5466E+02 -7.5877E+02 -7.6185E+02
-8.0315E+02 -8.0326E+02 -8.0334E+02 -8.0339E+02 -8.0344E+02 -8.0346E+02 -8.0350E+02 -8.0353E+02 -8.0354E+02 -8.0354E+02 -8.0353E+02 -8.0352E+02 -8.0349E+02 -8.0346E+02 -8.0341E+02 -8.0336E+02 -8.0330E+02 -8.0323E+02 -8.0315E+02 -8.0308E+02 -8.0299E+02 -8.0290E+02 -8.0281E+02 -8.0271E+02 -8.0261E+02 -8.0251E+02 -8.0241E+02 -8.0230E+02 -8.0219E+02 -8.0208E+02 -8.0197E+02 -8.0185E+02 -8.0173E+02 -8.0161E+02 -8.0148E+02 -8.0135E+02 -8.0122E+02 -8.0109E+02 -8.0096E+02 -8.0082E+02 -8.0068E+02 -8.0055E+02 -8.0041E+02 -8.0028E+02 -8.0015E+02 -8.0003E+02 -7.9992E+02 -7.9982E+02 -7.9972E+02 -7.9965E+02 -7.9958E+02 -7.9954E+02 -7.9951E+02 -7.9951E+02 -7.9953E+02 -7.9957E+02 -7.9964E+02 -7.9974E+02 -7.9987E+02 -8.0002E+02 -8.0021E+02 -8.0042E+02 -8.0066E+02 -8.0093E+02 -8.0123E+02 -8.0154E+02 -8.0187E+02 -8.0221E+02 -8.0255E+02 -8.0289E+02 -8.0322E+02 -8.0352E+02 -8.0378E+02 -8.0400E+02 -8.0417E+02 -8.0428E+02 -8.0431E+02 -8.0426E+02 -8.0412E+02 -8.0389E+02 -8.0355E+02 -8.0311E+02 -8.0255E+02 -8.0188E+02 -8.0109E+02 -8.0018E+02 -7.9914E+02 -7.9798E+02 -7.9667E+02 -7.9522E+02 -7.9363E+02 -7.9187E+02 -7.8995E+02 -7.8785E+02 -7.8556E+02 -7.8308E+02 -7.8040E+02 -7.7750E+02 -7.7439E+02 -7.7105E+02 -7.6749E+02 -7.6370E+02 -7.5969E+02 -7.5547E+02 -7.5104E+02 -7.4641E+02 -7.4161E+02 -7.3664E+02 -7.3154E+02 -7.2632E+02 -7.2102E+02 -7.1567E+02 -7.1031E+02 -7.0495E+02 -6.9966E+02 -6.9445E+02 -6.8937E+02 -6.8445E+02 -6.7973E+02 -6.7523E+02 -6.7099E+02 -6.6702E+02 -6.6334E+02 -6.5997E+02 -6.5691E+02 -6.5416E+02 -6.5173E+02 -6.4960E+02 -6.4776E+02 -6.4620E+02 -6.4489E+02 -6.4384E+02 -6.4300E+02 -6.4236E+02 -6.4190E+02 -6.4160E+02 -6.4145E+02 -6.4142E+02 -6.4150E+02 -6.4167E+02 -6.4193E+02 -6.4226E+02 -6.4266E+02 -6.4313E+02 -6.4365E+02 -6.4424E+02 -6.4489E+02 -6.4561E+02 -6.4642E+02 -6.4733E+02 -6.4835E+02 -6.4951E+02 -6.5084E+02 -6.5237E+02 -6.5412E+02 -6.5611E+02 -6.5839E+02 -6.6098E+02 -6.6389E+02 -6.6714E+02 -6.7073E+02 -6.7465E+02 -6.7891E+02 -6.8346E+02 -6.8829E+02 -6.9334E+02 -6.9857E+02 -7.0394E+02 -7.0938E+02 -7.1483E+02 -7.2029E+02 -7.2569E+02 -7.3100E+02 -7.3613E+02 -7.4097E+02 -7.4609E+02 -7.5094E+02 -7.5554E+02 -7.5961E+02 -7.6264E+02
-8.0334E+02 -8.0346E+02 -8.0354E+02 -8.0360E+02 -8.0365E+02 -8.0368E+02 -8.0373E+02 -8.0375E+02 -8.0377E+02 -8.0378E+02 -8.0377E+02 -8.0376E+02 -8.0374E+02 -8.0370E+02 -8.0366E+02 -8.0360E+02 -8.0354E+02 -8.0348E+02 -8.0340E+02 -8.0332E+02 -8.0324E+02 -8.0315E+02 -8.0305E+02 -8.0295E+02 -8.0285E+02 -8.0275E+02 -8.0264E+02 -8.0253E+02 -8.0241E+02 -8.0230E+02 -8.0218E+02 -8.0206E+02 -8.0193E+02 -8.0180E+02 -8.0167E+02 -8.0153E+02 -8.0140E+02 -8.0126E+02 -8.0111E+02 -8.0097E+02 -8.0082E+02 -8.0068E+02 -8.0054E+02 -8.0040E+02 -8.0026E+02 -8.0013E+02 -8.0001E+02 -7.9990E+02 -7.9980E+02 -7.9972E+02 -7.9965E+02 -7.9960E+02 -7.9957E+02 -7.9957E+02 -7.9958E+02 -7.9963E+02 -7.9970E+02 -7.9980E+02 -7.9993E+02 -8.0009E+02 -8.0028E+02 -8.0051E+02 -8.0076E+02 -8.0104E+02 -8.0135E+02 -8.0169E+02 -8.0203E+02 -8.0239E+02 -8.0276E+02 -8.0312E+02 -8.0346E+02 -8.0378E+02 -8.0407E+02 -8.0431E+02 -8.0449E+02 -8.0461E+02 -8.0465E+02 -8.0460E+02 -8.0447E+02 -8.0423E+02 -8.0389E+02 -8.0343E+02 -8.0286E+02 -8.0217E+02 -8.0136E+02 -8.0043E+02 -7.9936E+02 -7.9817E+02 -7.9683E+02 -7.9535E+02 -7.9372E+02 -7.9193E+02 -7.8998E+02 -7.8784E+02 -7.8552E+02 -7.8300E+02 -7.8028E+02 -7.7735E+02 -7.7419E+02 -7.7082E+02 -7.6721E+02 -7.6338E+02 -7.5933E+02 -7.5505E+02 -7.5057E+02 -7.4589E+02 -7.4103E+02 -7.3601E+02 -7.3085E+02 -7.2558E+02 -7.2022E+02 -7.1482E+02 -7.0940E+02 -7.0400E+02 -6.9866E+02 -6.9342E+02 -6.8831E+02 -6.8337E+02 -6.7863E+02 -6.7413E+02 -6.6988E+02 -6.6592E+02 -6.6225E+02 -6.5890E+02 -6.5586E+02 -6.5315E+02 -6.5075E+02 -6.4865E+02 -6.4685E+02 -6.4533E+02 -6.4406E+02 -6.4304E+02 -6.4224E+02 -6.4164E+02 -6.4122E+02 -6.4095E+02 -6.4082E+02 -6.4082E+02 -6.4093E+02 -6.4112E+02 -6.4140E+02 -6.4176E+02 -6.4218E+02 -6.4266E+02 -6.4320E+02 -6.4380E+02 -6.4447E+02 -6.4521E+02 -6.4603E+02 -6.4696E+02 -6.4800E+02 -6.4918E+02 -6.5054E+02 -6.5209E+02 -6.5386E+02 -6.5590E+02 -6.5822E+02 -6.6084E+02 -6.6380E+02 -6.6710E+02 -6.7075E+02 -6.7474E+02 -6.7907E+02 -6.8369E+02 -6.8858E+02 -6.9371E+02 -6.9901E+02 -7.0445E+02 -7.0995E+02 -7.1545E+02 -7.2096E+02 -7.2641E+02 -7.3175E+02 -7.3690E+02 -7.4176E+02 -7.4690E+02 -7.5176E+02 -7.5635E+02 -7.6039E+02 -7.6335E+02
-8.0353E+02 -8.0366E+02 -8.0375E+02 -8.0381E+02 -8.0386E+02 -8.0390E+02 -8.0395E+02 -8.0398E+02 -8.0400E+02 -8.0401E+02 -8.0401E+02 -8.0400E+02 -8.0398E+02 -8.0395E+02 -8.0391E+02 -8.0385E+02 -8.0379E+02 -8.0373E+02 -8.0365E+02 -8.0357E+02 -8.0348E+02 -8.0339E+02 -8.0330E+02 -8.0320E+02 -8.0309E+02 -8.0298E+02 -8.0287E+02 -8.0276E+02 -8.0264E+02 -8.0252E+02 -8.0240E+02 -8.0227E+02 -8.0214E+02 -8.0200E+02 -8.0186E+02 -8.0172E+02 -8.0158E+02 -8.0143E+02 -8.0128E+02 -8.0113E+02 -8.0097E+02 -8.0082E+02 -8.0067E+02 -8.0052E+02 -8.0038E+02 -8.0024E+02 -8.0011E+02 -8.0000E+02 -7.9989E+02 -7.9980E+02 -7.9973E+02 -7.9967E+02 -7.9964E+02 -7.9963E+02 -7.9964E+02 -7.9969E+02 -7.9976E+02 -7.9986E+02 -7.9999E+02 -8.0016E+02 -8.0036E+02 -8.0059E+02 -8.0086E+02 -8.0115E+02 -8.0148E+02 -8.0182E+02 -8.0219E+02 -8.0257E+02 -8.0295E+02 -8.0333E+02 -8.0370E+02 -8.0404E+02 -8.0434E+02 -8.0460E+02 -8.0479E+02 -8.0492E+02 -8.0497E+02 -8.0493E+02 -8.0480E+02 -8.0455E+02 -8.0420E+02 -8.0374E+02 -8.0315E+02 -8.0245E+02 -8.0162E+02 -8.0066E+02 -7.9957E+02 -7.9834E+02 -7.9698E+02 -7.9547E+02 -7.9381E+02 -7.9199E+02 -7.9000E+02 -7.8783E+02 -7.8547E+02 -7.8292E+02 -7.8016E+02 -7.7719E+02 -7.7400E+02 -7.7059E+02 -7.6694E+02 -7.6306E+02 -7.5896E+02 -7.5464E+02 -7.5011E+02 -7.4538E+02 -7.4046E+02 -7.3539E+02 -7.3017E+02 -7.2484E+02 -7.1943E+02 -7.1398E+02 -7.0851E+02 -7.0306E+02 -6.9768E+02 -6.9240E+02 -6.8726E+02 -6.8229E+02 -6.7753E+02 -6.7302E+02 -6.6877E+02 -6.6481E+02 -6.6115E+02 -6.5782E+02 -6.5480E+02 -6.5211E+02 -6.4974E+02 -6.4768E+02 -6.4591E+02 -6.4443E+02 -6.4321E+02 -6.4222E+02 -6.4146E+02 -6.4089E+02 -6.4050E+02 -6.4027E+02 -6.4017E+02 -6.4020E+02 -6.4033E+02 -6.4055E+02 -6.4085E+02 -6.4123E+02 -6.4167E+02 -6.4217E+02 -6.4273E+02 -6.4335E+02 -6.4403E+02 -6.4479E+02 -6.4563E+02 -6.4657E+02 -6.4763E+02 -6.4884E+02 -6.5022E+02 -6.5179E+02 -6.5359E+02 -6.5566E+02 -6.5801E+02 -6.6068E+02 -6.6369E+02 -6.6704E+02 -6.7074E+02 -6.7479E+02 -6.7918E+02 -6.8387E+02 -6.8883E+02 -6.9402E+02 -6.9939E+02 -7.0489E+02 -7.1045E+02 -7.1601E+02 -7.2157E+02 -7.2706E+02 -7.3243E+02 -7.3761E+02 -7.4247E+02 -7.4764E+02 -7.5250E+02 -7.5708E+02 -7.6110E+02 -7.6399E+02
-8.0372E+02 -8.0386E+02 -8.0395E+02 -8.0402E+02 -8.0408E+02 -8.0412E+02 -8.0418E+02 -8.0421E+02 -8.0424E+02 -8.0425E+02 -8.0425E+02 -8.0425E+02 -8.0423E+02 -8.0420E+02 -8.0415E+02 -8.0410E+02 -8.0405E+02 -8.0398E+02 -8.0390E+02 -8.0382E+02 -8.0373E+02 -8.0364E+02 -8.0354E+02 -8.0344E+02 -8.0333E+02 -8.0322E+02 -8.0311E+02 -8.0299E+02 -8.0287E+02 -8.0275E+02 -8.0262E+02 -8.0248E+02 -8.0235E+02 -8.0221E+02 -8.0206E+02 -8.0191E+02 -8.0176E+02 -8.0161E+02 -8.0145E+02 -8.0129E+02 -8.0113E+02 -8.0097E+02 -8.0081E+02 -8.0065E+02 -8.0050E+02 -8.0036E+02 -8.0022E+02 -8.0010E+02 -7.9998E+02 -7.9989E+02 -7.9981E+02 -7.9975E+02 -7.9971E+02 -7.9969E+02 -7.9971E+02 -7.9975E+02 -7.9982E+02 -7.9992E+02 -8.0005E+02 -8.0022E+02 -8.0043E+02 -8.0067E+02 -8.0095E+02 -8.0126E+02 -8.0159E+02 -8.0196E+02 -8.0234E+02 -8.0274E+02 -8.0314E+02 -8.0354E+02 -8.0392E+02 -8.0428E+02 -8.0460E+02 -8.0487E+02 -8.0508E+02 -8.0522E+02 -8.0528E+02 -8.0524E+02 -8.0510E+02 -8.0486E+02 -8.0450E+02 -8.0403E+02 -8.0343E+02 -8.0270E+02 -8.0185E+02 -8.0087E+02 -7.9976E+02 -7.9851E+02 -7.9711E+02 -7.9557E+02 -7.9388E+02 -7.9203E+02 -7.9001E+02 -7.8781E+02 -7.8542E+02 -7.8284E+02 -7.8004E+02 -7.7704E+02 -7.7381E+02 -7.7036E+02 -7.6667E+02 -7.6275E+02 -7.5861E+02 -7.5424E+02 -7.4966E+02 -7.4488E+02 -7.3991E+02 -7.3478E+02 -7.2951E+02 -7.2413E+02 -7.1866E+02 -7.1315E+02 -7.0763E+02 -7.0214E+02 -6.9671E+02 -6.9139E+02 -6.8621E+02 -6.8122E+02 -6.7644E+02 -6.7191E+02 -6.6766E+02 -6.6370E+02 -6.6005E+02 -6.5673E+02 -6.5373E+02 -6.5106E+02 -6.4872E+02 -6.4669E+02 -6.4496E+02 -6.4351E+02 -6.4232E+02 -6.4137E+02 -6.4065E+02 -6.4012E+02 -6.3976E+02 -6.3956E+02 -6.3950E+02 -6.3955E+02 -6.3971E+02 -6.3996E+02 -6.4028E+02 -6.4068E+02 -6.4114E+02 -6.4166E+02 -6.4224E+02 -6.4288E+02 -6.4358E+02 -6.4436E+02 -6.4522E+02 -6.4618E+02 -6.4726E+02 -6.4848E+02 -6.4988E+02 -6.5148E+02 -6.5331E+02 -6.5540E+02 -6.5779E+02 -6.6050E+02 -6.6354E+02 -6.6694E+02 -6.7069E+02 -6.7480E+02 -6.7924E+02 -6.8399E+02 -6.8901E+02 -6.9426E+02 -6.9969E+02 -7.0525E+02 -7.1087E+02 -7.1648E+02 -7.2209E+02 -7.2762E+02 -7.3303E+02 -7.3823E+02 -7.4311E+02 -7.4829E+02 -7.5316E+02 -7.5775E+02 -7.6174E+02 -7.6456E+02
-8.0391E+02 -8.0405E+02 -8.0415E+02 -8.0423E+02 -8.0429E+02 -8.0434E+02 -8.0440E+02 -8.0444E+02 -8.0447E+02 -8.0449E+02 -8.0449E+02 -8.0449E+02 -8.0447E+02 -8.0444E+02 -8.0441E+02 -8.0436E+02 -8.0430E+02 -8.0423E+02 -8.0416E+02 -8.0407E+02 -8.0398E+02 -8.0389E+02 -8.0379E+02 -8.0369E+02 -8.0358E+02 -8.0347E+02 -8.0335E+02 -8.0323E+02 -8.0310E+02 -8.0297E+02 -8.0284E+02 -8.0270E+02 -8.0256E+02 -8.0242E+02 -8.0227E+02 -8.0211E+02 -8.0195E+02 -8.0179E+02 -8.0163E+02 -8.0146E+02 -8.0129E+02 -8.0112E+02 -8.0096E+02 -8.0079E+02 -8.0063E+02 -8.0048E+02 -8.0034E+02 -8.0021E+02 -8.0009E+02 -7.9998E+02 -7.9989E+02 -7.9983E+02 -7.9978E+02 -7.9976E+02 -7.9977E+02 -7.9981E+02 -7.9988E+02 -7.9998E+02 -8.0012E+02 -8.0029E+02 -8.0050E+02 -8.0075E+02 -8.0103E+02 -8.0135E+02 -8.0170E+02 -8.0208E+02 -8.0248E+02 -8.0289E+02 -8.0331E+02 -8.0373E+02 -8.0413E+02 -8.0450E+02 -8.0484E+02 -8.0513E+02 -8.0535E+02 -8.0550E+02 -8.0556E+02 -8.0553E+02 -8.0539E+02 -8.0514E+02 -8.0478E+02 -8.0429E+02 -8.0368E+02 -8.0294E+02 -8.0207E+02 -8.0107E+02 -7.9993E+02 -7.9865E+02 -7.9723E+02 -7.9566E+02 -7.9394E+02 -7.9206E+02 -7.9001E+02 -7.8778E+02 -7.8536E+02 -7.8275E+02 -7.7992E+02 -7.7688E+02 -7.7362E+02 -7.7013E+02 -7.6641E+02 -7.6245E+02 -7.5826E+02 -7.5385E+02 -7.4922E+02 -7.4439E+02 -7.3937E+02 -7.3419E+02 -7.2886E+02 -7.2343E+02 -7.1791E+02 -7.1235E+02 -7.0677E+02 -7.0123E+02 -6.9576E+02 -6.9040E+02 -6.8519E+02 -6.8016E+02 -6.7536E+02 -6.7082E+02 -6.6655E+02 -6.6259E+02 -6.5894E+02 -6.5563E+02 -6.5265E+02 -6.5000E+02 -6.4769E+02 -6.4568E+02 -6.4398E+02 -6.4257E+02 -6.4141E+02 -6.4050E+02 -6.3981E+02 -6.3931E+02 -6.3899E+02 -6.3883E+02 -6.3879E+02 -6.3888E+02 -6.3906E+02 -6.3934E+02 -6.3969E+02 -6.4011E+02 -6.4060E+02 -6.4114E+02 -6.4174E+02 -6.4240E+02 -6.4312E+02 -6.4391E+02 -6.4479E+02 -6.4577E+02 -6.4686E+02 -6.4811E+02 -6.4953E+02 -6.5115E+02 -6.5300E+02 -6.5512E+02 -6.5754E+02 -6.6028E+02 -6.6336E+02 -6.6679E+02 -6.7059E+02 -6.7474E+02 -6.7923E+02 -6.8403E+02 -6.8911E+02 -6.9442E+02 -6.9991E+02 -7.0552E+02 -7.1119E+02 -7.1685E+02 -7.2250E+02 -7.2808E+02 -7.3352E+02 -7.3875E+02 -7.4364E+02 -7.4886E+02 -7.5374E+02 -7.5833E+02 -7.6231E+02 -7.6507E+02
-8.0410E+02 -8.0425E+02 -8.0436E+02 -8.0444E+02 -8.0451E+02 -8.0456E+02 -8.0463E+02 -8.0467E+02 -8.0471E+02 -8.0473E+02 -8.0474E+02 -8.0473E+02 -8.0472E+02 -8.0469E+02 -8.0466E+02 -8.0461E+02 -8.0455E+02 -8.0448E+02 -8.0441E+02 -8.0433E+02 -8.0424E+02 -8.0414E+02 -8.0404E+02 -8.0394E+02 -8.0383E+02 -8.0371E+02 -8.0359E+02 -8.0347E+02 -8.0334E+02 -8.0321E+02 -8.0307E+02 -8.0293E+02 -8.0278E+02 -8.0263E+02 -8.0248E+02 -8.0232E+02 -8.0215E+02 -8.0199E+02 -8.0181E+02 -8.0164E+02 -8.0146E+02 -8.0129E+02 -8.0111E+02 -8.0094E+02 -8.0077E+02 -8.0061E+02 -8.0046E+02 -8.0032E+02 -8.0019E+02 -8.0008E+02 -7.9999E+02 -7.9991E+02 -7.9986E+02 -7.9984E+02 -7.9984E+02 -7.9987E+02 -7.9994E+02 -8.0004E+02 -8.0018E+02 -8.0035E+02 -8.0057E+02 -8.0082E+02 -8.0112E+02 -8.0145E+02 -8.0181E+02 -8.0220E+02 -8.0261E+02 -8.0304E+02 -8.0348E+02 -8.0391E+02 -8.0432E+02 -8.0471E+02 -8.0506E+02 -8.0536E+02 -8.0560E+02 -8.0575E+02 -8.0582E+02 -8.0579E+02 -8.0565E+02 -8.0540E+02 -8.0503E+02 -8.0453E+02 -8.0391E+02 -8.0315E+02 -8.0226E+02 -8.0124E+02 -8.0008E+02 -7.9878E+02 -7.9733E+02 -7.9574E+02 -7.9399E+02 -7.9208E+02 -7.9000E+02 -7.8775E+02 -7.8530E+02 -7.8265E+02 -7.7980E+02 -7.7673E+02 -7.7343E+02 -7.6991E+02 -7.6615E+02 -7.6216E+02 -7.5793E+02 -7.5347E+02 -7.4880E+02 -7.4392E+02 -7.3886E+02 -7.3362E+02 -7.2825E+02 -7.2276E+02 -7.1719E+02 -7.1157E+02 -7.0595E+02 -7.0035E+02 -6.9484E+02 -6.8943E+02 -6.8419E+02 -6.7913E+02 -6.7431E+02 -6.6974E+02 -6.6546E+02 -6.6149E+02 -6.5785E+02 -6.5454E+02 -6.5157E+02 -6.4894E+02 -6.4664E+02 -6.4466E+02 -6.4299E+02 -6.4161E+02 -6.4049E+02 -6.3961E+02 -6.3895E+02 -6.3849E+02 -6.3820E+02 -6.3807E+02 -6.3807E+02 -6.3818E+02 -6.3840E+02 -6.3870E+02 -6.3908E+02 -6.3953E+02 -6.4003E+02 -6.4060E+02 -6.4122E+02 -6.4190E+02 -6.4264E+02 -6.4345E+02 -6.4434E+02 -6.4534E+02 -6.4646E+02 -6.4772E+02 -6.4916E+02 -6.5080E+02 -6.5267E+02 -6.5481E+02 -6.5726E+02 -6.6002E+02 -6.6313E+02 -6.6660E+02 -6.7043E+02 -6.7462E+02 -6.7916E+02 -6.8400E+02 -6.8913E+02 -6.9448E+02 -7.0002E+02 -7.0569E+02 -7.1141E+02 -7.1711E+02 -7.2281E+02 -7.2843E+02 -7.3391E+02 -7.3917E+02 -7.4408E+02 -7.4932E+02 -7.5423E+02 -7.5883E+02 -7.6280E+02 -7.6551E+02
-8.0429E+02 -8.0445E+02 -8.0456E+02 -8.0465E+02 -8.0472E+02 -8.0478E+02 -8.0485E+02 -8.0490E+02 -8.0494E+02 -8.0497E+02 -8.0498E+02 -8.0498E+02 -8.0497E+02 -8.0494E+02 -8.0491E+02 -8.0486E+02 -8.0481E+02 -8.0474E+02 -8.0467E+02 -8.0458E+02 -8.0449E+02 -8.0440E+02 -8.0430E+02 -8.0419E+02 -8.0408E+02 -8.0396E+02 -8.0384E+02 -8.0371E+02 -8.0358E+02 -8.0344E+02 -8.0330E+02 -8.0316E+02 -8.0301E+02 -8.0285E+02 -8.0269E+02 -8.0253E+02 -8.0236E+02 -8.0218E+02 -8.0201E+02 -8.0183E+02 -8.0164E+02 -8.0146E+02 -8.0128E+02 -8.0110E+02 -8.0092E+02 -8.0075E+02 -8.0059E+02 -8.0044E+02 -8.0031E+02 -8.0018E+02 -8.0008E+02 -8.0000E+02 -7.9994E+02 -7.9991E+02 -7.9991E+02 -7.9994E+02 -8.0000E+02 -8.0010E+02 -8.0024E+02 -8.0042E+02 -8.0064E+02 -8.0090E+02 -8.0119E+02 -8.0153E+02 -8.0190E+02 -8.0231E+02 -8.0273E+02 -8.0318E+02 -8.0363E+02 -8.0407E+02 -8.0450E+02 -8.0491E+02 -8.0527E+02 -8.0558E+02 -8.0582E+02 -8.0598E+02 -8.0606E+02 -8.0603E+02 -8.0589E+02 -8.0563E+02 -8.0525E+02 -8.0475E+02 -8.0411E+02 -8.0334E+02 -8.0243E+02 -8.0139E+02 -8.0021E+02 -7.9888E+02 -7.9742E+02 -7.9580E+02 -7.9403E+02 -7.9209E+02 -7.8999E+02 -7.8771E+02 -7.8523E+02 -7.8256E+02 -7.7968E+02 -7.7658E+02 -7.7325E+02 -7.6970E+02 -7.6590E+02 -7.6187E+02 -7.5761E+02 -7.5311E+02 -7.4840E+02 -7.4347E+02 -7.3836E+02 -7.3308E+02 -7.2765E+02 -7.2211E+02 -7.1649E+02 -7.1082E+02 -7.0515E+02 -6.9951E+02 -6.9395E+02 -6.8850E+02 -6.8322E+02 -6.7813E+02 -6.7327E+02 -6.6868E+02 -6.6439E+02 -6.6041E+02 -6.5676E+02 -6.5345E+02 -6.5049E+02 -6.4787E+02 -6.4559E+02 -6.4364E+02 -6.4199E+02 -6.4063E+02 -6.3954E+02 -6.3869E+02 -6.3807E+02 -6.3764E+02 -6.3739E+02 -6.3728E+02 -6.3732E+02 -6.3746E+02 -6.3771E+02 -6.3804E+02 -6.3845E+02 -6.3892E+02 -6.3945E+02 -6.4004E+02 -6.4068E+02 -6.4138E+02 -6.4214E+02 -6.4297E+02 -6.4389E+02 -6.4490E+02 -6.4603E+02 -6.4731E+02 -6.4877E+02 -6.5042E+02 -6.5232E+02 -6.5448E+02 -6.5694E+02 -6.5973E+02 -6.6286E+02 -6.6635E+02 -6.7022E+02 -6.7444E+02 -6.7900E+02 -6.8389E+02 -6.8905E+02 -6.9445E+02 -7.0003E+02 -7.0574E+02 -7.1150E+02 -7.1725E+02 -7.2299E+02 -7.2865E+02 -7.3417E+02 -7.3947E+02 -7.4441E+02 -7.4968E+02 -7.5462E+02 -7.5924E+02 -7.6322E+02 -7.6590E+02
-8.0448E+02 -8.0465E+02 -8.0477E+02 -8.0486E+02 -8.0494E+02 -8.0500E+02 -8.0508E+02 -8.0513E+02 -8.0518E+02 -8.0520E+02 -8.0522E+02 -8.0523E+02 -8.0522E+02 -8.0520E+02 -8.0516E+02 -8.0512E+02 -8.0506E+02 -8.0500E+02 -8.0492E+02 -8.0484E+02 -8.0475E+02 -8.0465E+02 -8.0455E+02 -8.0444E+02 -8.0433E+02 -8.0421E+02 -8.0408E+02 -8.0396E+02 -8.0382E+02 -8.0368E+02 -8.0354E+02 -8.0339E+02 -8.0324E+02 -8.0308E+02 -8.0291E+02 -8.0274E+02 -8.0257E+02 -8.0239E+02 -8.0221E+02 -8.0202E+02 -8.0183E+02 -8.0164E+02 -8.0145E+02 -8.0126E+02 -8.0108E+02 -8.0090E+02 -8.0073E+02 -8.0057E+02 -8.0043E+02 -8.0030E+02 -8.0018E+02 -8.0009E+02 -8.0003E+02 -7.9999E+02 -7.9998E+02 -8.0000E+02 -8.0006E+02 -8.0016E+02 -8.0030E+02 -8.0048E+02 -8.0070E+02 -8.0096E+02 -8.0127E+02 -8.0161E+02 -8.0199E+02 -8.0241E+02 -8.0284E+02 -8.0330E+02 -8.0376E+02 -8.0422E+02 -8.0466E+02 -8.0508E+02 -8.0545E+02 -8.0577E+02 -8.0602E+02 -8.0619E+02 -8.0627E+02 -8.0624E+02 -8.0610E+02 -8.0584E+02 -8.0545E+02 -8.0493E+02 -8.0428E+02 -8.0350E+02 -8.0258E+02 -8.0152E+02 -8.0032E+02 -7.9897E+02 -7.9748E+02 -7.9585E+02 -7.9405E+02 -7.9209E+02 -7.8997E+02 -7.8766E+02 -7.8516E+02 -7.8246E+02 -7.7956E+02 -7.7643E+02 -7.7307E+02 -7.6949E+02 -7.6566E+02 -7.6160E+02 -7.5730E+02 -7.5277E+02 -7.4801E+02 -7.4305E+02 -7.3789E+02 -7.3256E+02 -7.2709E+02 -7.2150E+02 -7.1583E+02 -7.1012E+02 -7.0439E+02 -6.9871E+02 -6.9310E+02 -6.8761E+02 -6.8229E+02 -6.7716E+02 -6.7228E+02 -6.6766E+02 -6.6334E+02 -6.5935E+02 -6.5569E+02 -6.5238E+02 -6.4942E+02 -6.4681E+02 -6.4455E+02 -6.4261E+02 -6.4098E+02 -6.3965E+02 -6.3858E+02 -6.3777E+02 -6.3717E+02 -6.3677E+02 -6.3655E+02 -6.3648E+02 -6.3654E+02 -6.3672E+02 -6.3700E+02 -6.3736E+02 -6.3779E+02 -6.3829E+02 -6.3885E+02 -6.3946E+02 -6.4013E+02 -6.4085E+02 -6.4163E+02 -6.4248E+02 -6.4341E+02 -6.4444E+02 -6.4559E+02 -6.4689E+02 -6.4836E+02 -6.5003E+02 -6.5194E+02 -6.5411E+02 -6.5659E+02 -6.5939E+02 -6.6254E+02 -6.6605E+02 -6.6993E+02 -6.7418E+02 -6.7877E+02 -6.8368E+02 -6.8887E+02 -6.9430E+02 -6.9992E+02 -7.0567E+02 -7.1147E+02 -7.1726E+02 -7.2305E+02 -7.2875E+02 -7.3431E+02 -7.3965E+02 -7.4462E+02 -7.4994E+02 -7.5491E+02 -7.5956E+02 -7.6357E+02 -7.6624E+02
-8.0467E+02 -8.0484E+02 -8.0497E+02 -8.0507E+02 -8.0516E+02 -8.0522E+02 -8.0530E+02 -8.0536E+02 -8.0541E+02 -8.0544E+02 -8.0546E+02 -8.0547E+02 -8.0547E+02 -8.0545E+02 -8.0542E+02 -8.0537E+02 -8.0532E+02 -8.0525E+02 -8.0518E+02 -8.0510E+02 -8.0501E+02 -8.0491E+02 -8.0481E+02 -8.0470E+02 -8.0458E+02 -8.0446E+02 -8.0433E+02 -8.0420E+02 -8.0407E+02 -8.0393E+02 -8.0378E+02 -8.0363E+02 -8.0347E+02 -8.0331E+02 -8.0314E+02 -8.0296E+02 -8.0278E+02 -8.0260E+02 -8.0241E+02 -8.0222E+02 -8.0202E+02 -8.0182E+02 -8.0163E+02 -8.0143E+02 -8.0124E+02 -8.0105E+02 -8.0087E+02 -8.0071E+02 -8.0055E+02 -8.0041E+02 -8.0029E+02 -8.0019E+02 -8.0012E+02 -8.0007E+02 -8.0005E+02 -8.0007E+02 -8.0013E+02 -8.0022E+02 -8.0035E+02 -8.0053E+02 -8.0075E+02 -8.0102E+02 -8.0133E+02 -8.0168E+02 -8.0207E+02 -8.0249E+02 -8.0294E+02 -8.0341E+02 -8.0388E+02 -8.0435E+02 -8.0481E+02 -8.0523E+02 -8.0562E+02 -8.0594E+02 -8.0620E+02 -8.0637E+02 -8.0645E+02 -8.0642E+02 -8.0628E+02 -8.0601E+02 -8.0562E+02 -8.0510E+02 -8.0443E+02 -8.0364E+02 -8.0270E+02 -8.0162E+02 -8.0040E+02 -7.9904E+02 -7.9753E+02 -7.9588E+02 -7.9406E+02 -7.9208E+02 -7.8993E+02 -7.8760E+02 -7.8508E+02 -7.8236E+02 -7.7943E+02 -7.7628E+02 -7.7290E+02 -7.6929E+02 -7.6543E+02 -7.6134E+02 -7.5701E+02 -7.5244E+02 -7.4765E+02 -7.4265E+02 -7.3745E+02 -7.3208E+02 -7.2656E+02 -7.2093E+02 -7.1521E+02 -7.0945E+02 -7.0368E+02 -6.9794E+02 -6.9229E+02 -6.8676E+02 -6.8139E+02 -6.7623E+02 -6.7131E+02 -6.6667E+02 -6.6233E+02 -6.5832E+02 -6.5465E+02 -6.5133E+02 -6.4837E+02 -6.4576E+02 -6.4350E+02 -6.4158E+02 -6.3997E+02 -6.3865E+02 -6.3761E+02 -6.3682E+02 -6.3626E+02 -6.3589E+02 -6.3570E+02 -6.3566E+02 -6.3575E+02 -6.3596E+02 -6.3626E+02 -6.3665E+02 -6.3712E+02 -6.3764E+02 -6.3823E+02 -6.3886E+02 -6.3955E+02 -6.4030E+02 -6.4110E+02 -6.4197E+02 -6.4292E+02 -6.4397E+02 -6.4514E+02 -6.4645E+02 -6.4793E+02 -6.4961E+02 -6.5153E+02 -6.5372E+02 -6.5620E+02 -6.5901E+02 -6.6217E+02 -6.6569E+02 -6.6958E+02 -6.7384E+02 -6.7844E+02 -6.8337E+02 -6.8858E+02 -6.9404E+02 -6.9968E+02 -7.0546E+02 -7.1130E+02 -7.1713E+02 -7.2295E+02 -7.2870E+02 -7.3431E+02 -7.3969E+02 -7.4471E+02 -7.5008E+02 -7.5510E+02 -7.5980E+02 -7.6385E+02 -7.6653E+02
-8.0486E+02 -8.0504E+02 -8.0517E+02 -8.0528E+02 -8.0537E+02 -8.0544E+02 -8.0553E+02 -8.0560E+02 -8.0565E+02 -8.0568E+02 -8.0571E+02 -8.0572E+02 -8.0572E+02 -8.0570E+02 -8.0567E+02 -8.0563E+02 -8.0558E+02 -8.0551E+02 -8.0544E+02 -8.0536E+02 -8.0527E+02 -8.0517E+02 -8.0506E+02 -8.0495E+02 -8.0484E+02 -8.0471E+02 -8.0459E+02 -8.0445E+02 -8.0432E+02 -8.0417E+02 -8.0402E+02 -8.0387E+02 -8.0371E+02 -8.0354E+02 -8.0337E+02 -8.0319E+02 -8.0301E+02 -8.0282E+02 -8.0262E+02 -8.0242E+02 -8.0222E+02 -8.0202E+02 -8.0181E+02 -8.0161E+02 -8.0141E+02 -8.0121E+02 -8.0103E+02 -8.0085E+02 -8.0068E+02 -8.0053E+02 -8.0040E+02 -8.0029E+02 -8.0021E+02 -8.0015E+02 -8.0013E+02 -8.0014E+02 -8.0019E+02 -8.0028E+02 -8.0041E+02 -8.0058E+02 -8.0081E+02 -8.0107E+02 -8.0139E+02 -8.0174E+02 -8.0214E+02 -8.0257E+02 -8.0303E+02 -8.0350E+02 -8.0399E+02 -8.0447E+02 -8.0493E+02 -8.0537E+02 -8.0576E+02 -8.0609E+02 -8.0636E+02 -8.0653E+02 -8.0661E+02 -8.0658E+02 -8.0644E+02 -8.0617E+02 -8.0576E+02 -8.0523E+02 -8.0456E+02 -8.0375E+02 -8.0280E+02 -8.0170E+02 -8.0047E+02 -7.9909E+02 -7.9757E+02 -7.9589E+02 -7.9406E+02 -7.9206E+02 -7.8989E+02 -7.8754E+02 -7.8500E+02 -7.8226E+02 -7.7931E+02 -7.7613E+02 -7.7273E+02 -7.6909E+02 -7.6521E+02 -7.6109E+02 -7.5673E+02 -7.5213E+02 -7.4731E+02 -7.4227E+02 -7.3703E+02 -7.3162E+02 -7.2606E+02 -7.2039E+02 -7.1463E+02 -7.0882E+02 -7.0300E+02 -6.9722E+02 -6.9153E+02 -6.8595E+02 -6.8054E+02 -6.7535E+02 -6.7039E+02 -6.6572E+02 -6.6135E+02 -6.5731E+02 -6.5363E+02 -6.5030E+02 -6.4733E+02 -6.4472E+02 -6.4247E+02 -6.4055E+02 -6.3895E+02 -6.3766E+02 -6.3664E+02 -6.3587E+02 -6.3533E+02 -6.3499E+02 -6.3483E+02 -6.3482E+02 -6.3494E+02 -6.3518E+02 -6.3551E+02 -6.3593E+02 -6.3642E+02 -6.3698E+02 -6.3759E+02 -6.3825E+02 -6.3896E+02 -6.3973E+02 -6.4055E+02 -6.4145E+02 -6.4242E+02 -6.4348E+02 -6.4466E+02 -6.4599E+02 -6.4748E+02 -6.4917E+02 -6.5110E+02 -6.5329E+02 -6.5578E+02 -6.5859E+02 -6.6175E+02 -6.6527E+02 -6.6916E+02 -6.7342E+02 -6.7803E+02 -6.8296E+02 -6.8818E+02 -6.9365E+02 -6.9931E+02 -7.0512E+02 -7.1099E+02 -7.1685E+02 -7.2272E+02 -7.2851E+02 -7.3417E+02 -7.3961E+02 -7.4468E+02 -7.5011E+02 -7.5519E+02 -7.5996E+02 -7.6407E+02 -7.6678E+02
-8.0506E+02 -8.0524E+02 -8.0538E+02 -8.0549E+02 -8.0559E+02 -8.0567E+02 -8.0576E+02 -8.0583E+02 -8.0588E+02 -8.0593E+02 -8.0595E+02 -8.0597E+02 -8.0597E+02 -8.0595E+02 -8.0593E+02 -8.0589E+02 -8.0584E+02 -8.0577E+02 -8.0570E+02 -8.0562E+02 -8.0553E+02 -8.0543E+02 -8.0532E+02 -8.0521E+02 -8.0509E+02 -8.0497E+02 -8.0484E+02 -8.0471E+02 -8.0457E+02 -8.0442E+02 -8.0427E+02 -8.0411E+02 -8.0395E+02 -8.0378E+02 -8.0360E+02 -8.0342E+02 -8.0323E+02 -8.0304E+02 -8.0284E+02 -8.0263E+02 -8.0242E+02 -8.0221E+02 -8.0200E+02 -8.0179E+02 -8.0158E+02 -8.0138E+02 -8.0118E+02 -8.0099E+02 -8.0082E+02 -8.0066E+02 -8.0052E+02 -8.0040E+02 -8.0031E+02 -8.0024E+02 -8.0021E+02 -8.0021E+02 -8.0025E+02 -8.0033E+02 -8.0046E+02 -8.0063E+02 -8.0085E+02 -8.0112E+02 -8.0144E+02 -8.0180E+02 -8.0220E+02 -8.0264E+02 -8.0310E+02 -8.0359E+02 -8.0408E+02 -8.0457E+02 -8.0504E+02 -8.0549E+02 -8.0588E+02 -8.0622E+02 -8.0649E+02 -8.0667E+02 -8.0675E+02 -8.0672E+02 -8.0657E+02 -8.0629E+02 -8.0588E+02 -8.0534E+02 -8.0466E+02 -8.0383E+02 -8.0287E+02 -8.0176E+02 -8.0052E+02 -7.9912E+02 -7.9758E+02 -7.9589E+02 -7.9404E+02 -7.9203E+02 -7.8984E+02 -7.8747E+02 -7.8492E+02 -7.8216E+02 -7.7918E+02 -7.7599E+02 -7.7256E+02 -7.6890E+02 -7.6500E+02 -7.6085E+02 -7.5646E+02 -7.5184E+02 -7.4698E+02 -7.4191E+02 -7.3664E+02 -7.3119E+02 -7.2560E+02 -7.1988E+02 -7.1408E+02 -7.0823E+02 -7.0237E+02 -6.9655E+02 -6.9081E+02 -6.8519E+02 -6.7974E+02 -6.7450E+02 -6.6951E+02 -6.6480E+02 -6.6041E+02 -6.5634E+02 -6.5263E+02 -6.4929E+02 -6.4631E+02 -6.4370E+02 -6.4144E+02 -6.3953E+02 -6.3794E+02 -6.3666E+02 -6.3565E+02 -6.3491E+02 -6.3439E+02 -6.3407E+02 -6.3394E+02 -6.3396E+02 -6.3411E+02 -6.3438E+02 -6.3474E+02 -6.3519E+02 -6.3571E+02 -6.3629E+02 -6.3693E+02 -6.3762E+02 -6.3836E+02 -6.3915E+02 -6.3999E+02 -6.4090E+02 -6.4189E+02 -6.4298E+02 -6.4417E+02 -6.4551E+02 -6.4701E+02 -6.4871E+02 -6.5064E+02 -6.5283E+02 -6.5532E+02 -6.5812E+02 -6.6127E+02 -6.6479E+02 -6.6867E+02 -6.7292E+02 -6.7752E+02 -6.8245E+02 -6.8767E+02 -6.9314E+02 -6.9881E+02 -7.0463E+02 -7.1053E+02 -7.1643E+02 -7.2233E+02 -7.2818E+02 -7.3389E+02 -7.3939E+02 -7.4453E+02 -7.5002E+02 -7.5518E+02 -7.6002E+02 -7.6422E+02 -7.6700E+02
-8.0525E+02 -8.0544E+02 -8.0558E+02 -8.0570E+02 -8.0581E+02 -8.0589E+02 -8.0598E+02 -8.0606E+02 -8.0612E+02 -8.0617E+02 -8.0620E+02 -8.0622E+02 -8.0622E+02 -8.0621E+02 -8.0618E+02 -8.0615E+02 -8.0610E+02 -8.0603E+02 -8.0596E+02 -8.0588E+02 -8.0579E+02 -8.0569E+02 -8.0559E+02 -8.0547E+02 -8.0535E+02 -8.0523E+02 -8.0510E+02 -8.0496E+02 -8.0482E+02 -8.0467E+02 -8.0452E+02 -8.0436E+02 -8.0419E+02 -8.0402E+02 -8.0384E+02 -8.0365E+02 -8.0346E+02 -8.0326E+02 -8.0306E+02 -8.0285E+02 -8.0263E+02 -8.0242E+02 -8.0220E+02 -8.0198E+02 -8.0176E+02 -8.0155E+02 -8.0134E+02 -8.0115E+02 -8.0096E+02 -8.0079E+02 -8.0064E+02 -8.0051E+02 -8.0041E+02 -8.0033E+02 -8.0029E+02 -8.0028E+02 -8.0031E+02 -8.0039E+02 -8.0051E+02 -8.0068E+02 -8.0090E+02 -8.0117E+02 -8.0148E+02 -8.0185E+02 -8.0225E+02 -8.0269E+02 -8.0317E+02 -8.0366E+02 -8.0416E+02 -8.0465E+02 -8.0514E+02 -8.0558E+02 -8.0599E+02 -8.0633E+02 -8.0660E+02 -8.0678E+02 -8.0686E+02 -8.0683E+02 -8.0667E+02 -8.0639E+02 -8.0597E+02 -8.0542E+02 -8.0473E+02 -8.0390E+02 -8.0292E+02 -8.0180E+02 -8.0054E+02 -7.9913E+02 -7.9758E+02 -7.9587E+02 -7.9401E+02 -7.9198E+02 -7.8978E+02 -7.8740E+02 -7.8482E+02 -7.8204E+02 -7.7905E+02 -7.7584E+02 -7.7240E+02 -7.6871E+02 -7.6479E+02 -7.6062E+02 -7.5621E+02 -7.5155E+02 -7.4667E+02 -7.4157E+02 -7.3627E+02 -7.3079E+02 -7.2516E+02 -7.1941E+02 -7.1357E+02 -7.0768E+02 -7.0178E+02 -6.9592E+02 -6.9013E+02 -6.8447E+02 -6.7898E+02 -6.7370E+02 -6.6867E+02 -6.6393E+02 -6.5950E+02 -6.5541E+02 -6.5167E+02 -6.4831E+02 -6.4531E+02 -6.4269E+02 -6.4043E+02 -6.3851E+02 -6.3693E+02 -6.3565E+02 -6.3466E+02 -6.3393E+02 -6.3344E+02 -6.3314E+02 -6.3303E+02 -6.3308E+02 -6.3326E+02 -6.3356E+02 -6.3395E+02 -6.3443E+02 -6.3498E+02 -6.3559E+02 -6.3625E+02 -6.3697E+02 -6.3773E+02 -6.3854E+02 -6.3941E+02 -6.4035E+02 -6.4135E+02 -6.4245E+02 -6.4366E+02 -6.4501E+02 -6.4652E+02 -6.4822E+02 -6.5015E+02 -6.5234E+02 -6.5481E+02 -6.5761E+02 -6.6074E+02 -6.6424E+02 -6.6810E+02 -6.7233E+02 -6.7691E+02 -6.8183E+02 -6.8704E+02 -6.9250E+02 -6.9818E+02 -7.0401E+02 -7.0993E+02 -7.1586E+02 -7.2180E+02 -7.2770E+02 -7.3347E+02 -7.3904E+02 -7.4426E+02 -7.4982E+02 -7.5507E+02 -7.6001E+02 -7.6431E+02 -7.6718E+02
-8.0544E+02 -8.0564E+02 -8.0579E+02 -8.0591E+02 -8.0602E+02 -8.0611E+02 -8.0621E+02 -8.0629E+02 -8.0636E+02 -8.0641E+02 -8.0644E+02 -8.0647E+02 -8.0647E+02 -8.0646E+02 -8.0644E+02 -8.0641E+02 -8.0636E+02 -8.0630E+02 -8.0623E+02 -8.0614E+02 -8.0605E+02 -8.0595E+02 -8.0585E+02 -8.0574E+02 -8.0562E+02 -8.0549E+02 -8.0536E+02 -8.0522E+02 -8.0508E+02 -8.0493E+02 -8.0477E+02 -8.0461E+02 -8.0444E+02 -8.0427E+02 -8.0408E+02 -8.0389E+02 -8.0370E+02 -8.0349E+02 -8.0328E+02 -8.0307E+02 -8.0285E+02 -8.0263E+02 -8.0240E+02 -8.0218E+02 -8.0195E+02 -8.0173E+02 -8.0151E+02 -8.0131E+02 -8.0111E+02 -8.0093E+02 -8.0077E+02 -8.0062E+02 -8.0051E+02 -8.0042E+02 -8.0037E+02 -8.0035E+02 -8.0038E+02 -8.0044E+02 -8.0056E+02 -8.0073E+02 -8.0094E+02 -8.0121E+02 -8.0152E+02 -8.0189E+02 -8.0230E+02 -8.0274E+02 -8.0322E+02 -8.0372E+02 -8.0422E+02 -8.0473E+02 -8.0521E+02 -8.0567E+02 -8.0608E+02 -8.0642E+02 -8.0669E+02 -8.0687E+02 -8.0695E+02 -8.0691E+02 -8.0675E+02 -8.0647E+02 -8.0604E+02 -8.0548E+02 -8.0478E+02 -8.0394E+02 -8.0295E+02 -8.0182E+02 -8.0055E+02 -7.9913E+02 -7.9756E+02 -7.9584E+02 -7.9396E+02 -7.9192E+02 -7.8971E+02 -7.8731E+02 -7.8472E+02 -7.8193E+02 -7.7892E+02 -7.7569E+02 -7.7223E+02 -7.6853E+02 -7.6458E+02 -7.6039E+02 -7.5596E+02 -7.5128E+02 -7.4638E+02 -7.4125E+02 -7.3592E+02 -7.3041E+02 -7.2475E+02 -7.1897E+02 -7.1309E+02 -7.0716E+02 -7.0123E+02 -6.9533E+02 -6.8950E+02 -6.8380E+02 -6.7827E+02 -6.7295E+02 -6.6788E+02 -6.6310E+02 -6.5863E+02 -6.5451E+02 -6.5074E+02 -6.4735E+02 -6.4434E+02 -6.4170E+02 -6.3942E+02 -6.3750E+02 -6.3592E+02 -6.3465E+02 -6.3367E+02 -6.3295E+02 -6.3247E+02 -6.3220E+02 -6.3211E+02 -6.3218E+02 -6.3239E+02 -6.3272E+02 -6.3314E+02 -6.3365E+02 -6.3422E+02 -6.3486E+02 -6.3556E+02 -6.3630E+02 -6.3709E+02 -6.3793E+02 -6.3882E+02 -6.3977E+02 -6.4080E+02 -6.4191E+02 -6.4313E+02 -6.4449E+02 -6.4600E+02 -6.4771E+02 -6.4963E+02 -6.5181E+02 -6.5427E+02 -6.5705E+02 -6.6016E+02 -6.6363E+02 -6.6746E+02 -6.7166E+02 -6.7621E+02 -6.8110E+02 -6.8629E+02 -6.9174E+02 -6.9742E+02 -7.0325E+02 -7.0919E+02 -7.1514E+02 -7.2113E+02 -7.2707E+02 -7.3292E+02 -7.3857E+02 -7.4387E+02 -7.4952E+02 -7.5487E+02 -7.5992E+02 -7.6434E+02 -7.6734E+02
-8.0563E+02 -8.0584E+02 -8.0600E+02 -8.0613E+02 -8.0624E+02 -8.0633E+02 -8.0644E+02 -8.0653E+02 -8.0660E+02 -8.0665E+02 -8.0669E+02 -8.0672E+02 -8.0673E+02 -8.0672E+02 -8.0670E+02 -8.0667E+02 -8.0662E+02 -8.0656E+02 -8.0649E+02 -8.0641E+02 -8.0632E+02 -8.0622E+02 -8.0611E+02 -8.0600E+02 -8.0588E+02 -8.0575E+02 -8.0562E+02 -8.0548E+02 -8.0534E+02 -8.0519E+02 -8.0503E+02 -8.0486E+02 -8.0469E+02 -8.0451E+02 -8.0433E+02 -8.0414E+02 -8.0394E+02 -8.0373E+02 -8.0352E+02 -8.0330E+02 -8.0307E+02 -8.0284E+02 -8.0261E+02 -8.0238E+02 -8.0214E+02 -8.0191E+02 -8.0169E+02 -8.0147E+02 -8.0126E+02 -8.0107E+02 -8.0090E+02 -8.0074E+02 -8.0062E+02 -8.0052E+02 -8.0045E+02 -8.0043E+02 -8.0044E+02 -8.0050E+02 -8.0061E+02 -8.0077E+02 -8.0098E+02 -8.0124E+02 -8.0156E+02 -8.0193E+02 -8.0234E+02 -8.0279E+02 -8.0327E+02 -8.0377E+02 -8.0428E+02 -8.0479E+02 -8.0528E+02 -8.0574E+02 -8.0615E+02 -8.0650E+02 -8.0677E+02 -8.0695E+02 -8.0702E+02 -8.0698E+02 -8.0682E+02 -8.0652E+02 -8.0609E+02 -8.0552E+02 -8.0481E+02 -8.0396E+02 -8.0296E+02 -8.0182E+02 -8.0054E+02 -7.9911E+02 -7.9753E+02 -7.9580E+02 -7.9391E+02 -7.9185E+02 -7.8962E+02 -7.8721E+02 -7.8461E+02 -7.8180E+02 -7.7878E+02 -7.7553E+02 -7.7206E+02 -7.6834E+02 -7.6438E+02 -7.6017E+02 -7.5571E+02 -7.5102E+02 -7.4609E+02 -7.4094E+02 -7.3559E+02 -7.3005E+02 -7.2436E+02 -7.1855E+02 -7.1264E+02 -7.0668E+02 -7.0071E+02 -6.9477E+02 -6.8891E+02 -6.8317E+02 -6.7760E+02 -6.7224E+02 -6.6713E+02 -6.6230E+02 -6.5780E+02 -6.5364E+02 -6.4984E+02 -6.4642E+02 -6.4338E+02 -6.4072E+02 -6.3843E+02 -6.3651E+02 -6.3492E+02 -6.3365E+02 -6.3267E+02 -6.3197E+02 -6.3150E+02 -6.3125E+02 -6.3118E+02 -6.3127E+02 -6.3151E+02 -6.3186E+02 -6.3231E+02 -6.3285E+02 -6.3345E+02 -6.3412E+02 -6.3484E+02 -6.3561E+02 -6.3643E+02 -6.3729E+02 -6.3820E+02 -6.3918E+02 -6.4022E+02 -6.4135E+02 -6.4259E+02 -6.4395E+02 -6.4547E+02 -6.4717E+02 -6.4908E+02 -6.5125E+02 -6.5369E+02 -6.5644E+02 -6.5952E+02 -6.6296E+02 -6.6675E+02 -6.7091E+02 -6.7543E+02 -6.8028E+02 -6.8544E+02 -6.9087E+02 -6.9653E+02 -7.0236E+02 -7.0831E+02 -7.1429E+02 -7.2031E+02 -7.2632E+02 -7.3223E+02 -7.3797E+02 -7.4337E+02 -7.4912E+02 -7.5457E+02 -7.5976E+02 -7.6433E+02 -7.6747E+02
-8.0583E+02 -8.0604E+02 -8.0620E+02 -8.0634E+02 -8.0646E+02 -8.0656E+02 -8.0667E+02 -8.0676E+02 -8.0684E+02 -8.0689E+02 -8.0694E+02 -8.0697E+02 -8.0698E+02 -8.0698E+02 -8.0696E+02 -8.0693E+02 -8.0688E+02 -8.0682E+02 -8.0676E+02 -8.0668E+02 -8.0659E+02 -8.0649E+02 -8.0638E+02 -8.0627E+02 -8.0615E+02 -8.0602E+02 -8.0588E+02 -8.0574E+02 -8.0560E+02 -8.0545E+02 -8.0529E+02 -8.0512E+02 -8.0495E+02 -8.0477E+02 -8.0458E+02 -8.0438E+02 -8.0418E+02 -8.0397E+02 -8.0375E+02 -8.0353E+02 -8.0330E+02 -8.0306E+02 -8.0282E+02 -8.0258E+02 -8.0234E+02 -8.0210E+02 -8.0187E+02 -8.0164E+02 -8.0142E+02 -8.0122E+02 -8.0103E+02 -8.0087E+02 -8.0073E+02 -8.0062E+02 -8.0054E+02 -8.0050E+02 -8.0051E+02 -8.0056E+02 -8.0066E+02 -8.0081E+02 -8.0102E+02 -8.0128E+02 -8.0159E+02 -8.0196E+02 -8.0237E+02 -8.0282E+02 -8.0330E+02 -8.0381E+02 -8.0432E+02 -8.0484E+02 -8.0533E+02 -8.0579E+02 -8.0620E+02 -8.0655E+02 -8.0682E+02 -8.0700E+02 -8.0707E+02 -8.0703E+02 -8.0686E+02 -8.0656E+02 -8.0612E+02 -8.0554E+02 -8.0482E+02 -8.0396E+02 -8.0295E+02 -8.0180E+02 -8.0051E+02 -7.9907E+02 -7.9748E+02 -7.9573E+02 -7.9383E+02 -7.9177E+02 -7.8953E+02 -7.8710E+02 -7.8449E+02 -7.8167E+02 -7.7863E+02 -7.7537E+02 -7.7188E+02 -7.6814E+02 -7.6416E+02 -7.5994E+02 -7.5547E+02 -7.5075E+02 -7.4581E+02 -7.4064E+02 -7.3526E+02 -7.2971E+02 -7.2399E+02 -7.1815E+02 -7.1222E+02 -7.0623E+02 -7.0022E+02 -6.9425E+02 -6.8835E+02 -6.8257E+02 -6.7696E+02 -6.7156E+02 -6.6641E+02 -6.6154E+02 -6.5700E+02 -6.5280E+02 -6.4897E+02 -6.4552E+02 -6.4245E+02 -6.3977E+02 -6.3746E+02 -6.3552E+02 -6.3392E+02 -6.3264E+02 -6.3167E+02 -6.3097E+02 -6.3052E+02 -6.3028E+02 -6.3023E+02 -6.3035E+02 -6.3060E+02 -6.3098E+02 -6.3146E+02 -6.3202E+02 -6.3266E+02 -6.3336E+02 -6.3410E+02 -6.3490E+02 -6.3574E+02 -6.3663E+02 -6.3757E+02 -6.3857E+02 -6.3963E+02 -6.4078E+02 -6.4202E+02 -6.4339E+02 -6.4491E+02 -6.4661E+02 -6.4851E+02 -6.5066E+02 -6.5308E+02 -6.5579E+02 -6.5884E+02 -6.6223E+02 -6.6598E+02 -6.7009E+02 -6.7456E+02 -6.7937E+02 -6.8449E+02 -6.8989E+02 -6.9553E+02 -7.0135E+02 -7.0730E+02 -7.1331E+02 -7.1938E+02 -7.2544E+02 -7.3143E+02 -7.3726E+02 -7.4277E+02 -7.4862E+02 -7.5420E+02 -7.5953E+02 -7.6427E+02 -7.6759E+02
-8.0602E+02 -8.0624E+02 -8.0641E+02 -8.0655E+02 -8.0668E+02 -8.0678E+02 -8.0690E+02 -8.0700E+02 -8.0708E+02 -8.0714E+02 -8.0719E+02 -8.0722E+02 -8.0724E+02 -8.0724E+02 -8.0722E+02 -8.0719E+02 -8.0715E+02 -8.0709E+02 -8.0702E+02 -8.0694E+02 -8.0685E+02 -8.0676E+02 -8.0665E+02 -8.0653E+02 -8.0641E+02 -8.0629E+02 -8.0615E+02 -8.0601E+02 -8.0586E+02 -8.0571E+02 -8.0555E+02 -8.0538E+02 -8.0520E+02 -8.0502E+02 -8.0483E+02 -8.0463E+02 -8.0443E+02 -8.0421E+02 -8.0399E+02 -8.0376E+02 -8.0353E+02 -8.0329E+02 -8.0304E+02 -8.0280E+02 -8.0255E+02 -8.0230E+02 -8.0206E+02 -8.0182E+02 -8.0159E+02 -8.0138E+02 -8.0118E+02 -8.0100E+02 -8.0085E+02 -8.0072E+02 -8.0064E+02 -8.0059E+02 -8.0058E+02 -8.0062E+02 -8.0071E+02 -8.0086E+02 -8.0106E+02 -8.0131E+02 -8.0162E+02 -8.0199E+02 -8.0240E+02 -8.0285E+02 -8.0333E+02 -8.0384E+02 -8.0436E+02 -8.0488E+02 -8.0537E+02 -8.0584E+02 -8.0625E+02 -8.0660E+02 -8.0687E+02 -8.0704E+02 -8.0711E+02 -8.0706E+02 -8.0689E+02 -8.0658E+02 -8.0614E+02 -8.0555E+02 -8.0482E+02 -8.0395E+02 -8.0293E+02 -8.0177E+02 -8.0047E+02 -7.9901E+02 -7.9741E+02 -7.9566E+02 -7.9375E+02 -7.9167E+02 -7.8942E+02 -7.8698E+02 -7.8435E+02 -7.8152E+02 -7.7847E+02 -7.7520E+02 -7.7169E+02 -7.6794E+02 -7.6395E+02 -7.5971E+02 -7.5522E+02 -7.5049E+02 -7.4552E+02 -7.4034E+02 -7.3495E+02 -7.2937E+02 -7.2363E+02 -7.1777E+02 -7.1181E+02 -7.0579E+02 -6.9976E+02 -6.9375E+02 -6.8782E+02 -6.8200E+02 -6.7635E+02 -6.7091E+02 -6.6572E+02 -6.6082E+02 -6.5623E+02 -6.5199E+02 -6.4812E+02 -6.4464E+02 -6.4154E+02 -6.3882E+02 -6.3649E+02 -6.3453E+02 -6.3292E+02 -6.3164E+02 -6.3067E+02 -6.2997E+02 -6.2952E+02 -6.2930E+02 -6.2926E+02 -6.2940E+02 -6.2968E+02 -6.3009E+02 -6.3059E+02 -6.3118E+02 -6.3185E+02 -6.3257E+02 -6.3335E+02 -6.3417E+02 -6.3504E+02 -6.3596E+02 -6.3692E+02 -6.3794E+02 -6.3902E+02 -6.4018E+02 -6.4144E+02 -6.4281E+02 -6.4433E+02 -6.4602E+02 -6.4791E+02 -6.5004E+02 -6.5243E+02 -6.5511E+02 -6.5811E+02 -6.6145E+02 -6.6515E+02 -6.6921E+02 -6.7362E+02 -6.7838E+02 -6.8345E+02 -6.8881E+02 -6.9442E+02 -7.0023E+02 -7.0619E+02 -7.1222E+02 -7.1833E+02 -7.2445E+02 -7.3052E+02 -7.3645E+02 -7.4209E+02 -7.4804E+02 -7.5377E+02 -7.5925E+02 -7.6418E+02 -7.6769E+02
