-2.1066E+02 -2.1073E+02 -2.1076E+02 -2.1077E+02 -2.1078E+02 -2.1077E+02 -2.1075E+02 -2.1071E+02 -2.1067E+02 -2.1062E+02 -2.1057E+02 -2.1051E+02 -2.1045E+02 -2.1039E+02 -2.1033E+02 -2.1027E+02 -2.1021E+02 -2.1015E+02 -2.1008E+02 -2.1002E+02 -2.0996E+02 -2.0989E+02 -2.0983E+02 -2.0976E+02 -2.0969E+02 -2.0962E+02 -2.0955E+02 -2.0949E+02 -2.0943E+02 -2.0937E+02 -2.0933E+02 -2.0931E+02 -2.0931E+02 -2.0933E+02 -2.0937E+02 -2.0943E+02 -2.0951E+02 -2.0960E+02 -2.0967E+02 -2.0974E+02 -2.0977E+02 -2.0978E+02 -2.0974E+02 -2.0968E+02 -2.0958E+02 -2.0947E+02 -2.0935E+02 -2.0923E+02 -2.0912E+02 -2.0903E+02 -2.0897E+02 -2.0893E+02 -2.0893E+02 -2.0895E+02 -2.0900E+02 -2.0906E+02 -2.0914E+02 -2.0924E+02 -2.0934E+02 -2.0945E+02 -2.0956E+02 -2.0966E+02 -2.0977E+02 -2.0986E+02 -2.0995E+02 -2.1001E+02 -2.1007E+02 -2.1010E+02 -2.1012E+02 -2.1013E+02 -2.1012E+02 -2.1011E+02 -2.1008E+02 -2.1005E+02 -2.0999E+02 -2.0992E+02 -2.0984E+02 -2.0975E+02 -2.0964E+02 -2.0953E+02 -2.0941E+02 -2.0929E+02 -2.0916E+02 -2.0899E+02 -2.0878E+02 -2.0849E+02 -2.0809E+02 -2.0756E+02 -2.0689E+02 -2.0608E+02 -2.0511E+02 -2.0399E+02 -2.0273E+02 -2.0132E+02 -1.9975E+02 -1.9802E+02 -1.9611E+02 -1.9399E+02 -1.9167E+02 -1.8913E+02 -1.8635E+02 -1.8333E+02 -1.8003E+02 -1.7644E+02 -1.7256E+02 -1.6838E+02 -1.6395E+02 -1.5929E+02 -1.5447E+02 -1.4954E+02 -1.4452E+02 -1.3943E+02 -1.3426E+02 -1.2898E+02 -1.2359E+02 -1.1804E+02 -1.1236E+02 -1.0656E+02 -1.0070E+02 -9.4872E+01 -8.9160E+01 -8.3677E+01 -7.8532E+01 -7.3821E+01 -6.9623E+01 -6.5988E+01 -6.2936E+01 -6.0455E+01 -5.8507E+01 -5.7032E+01 -5.5958E+01 -5.5214E+01 -5.4731E+01 -5.4453E+01 -5.4334E+01 -5.4337E+01 -5.4437E+01 -5.4616E+01 -5.4860E+01 -5.5163E+01 -5.5516E+01 -5.5916E+01 -5.6358E+01 -5.6839E+01 -5.7356E+01 -5.7905E+01 -5.8484E+01 -5.9090E+01 -5.9720E+01 -6.0372E+01 -6.1044E+01 -6.1732E+01 -6.2435E+01 -6.3148E+01 -6.3870E+01 -6.4598E+01 -6.5330E+01 -6.6074E+01 -6.6857E+01 -6.7744E+01 -6.8852E+01 -7.0370E+01 -7.2537E+01 -7.5602E+01 -7.9753E+01 -8.5079E+01 -9.1499E+01 -9.8775E+01 -1.0653E+02 -1.1436E+02 -1.2187E+02 -1.2877E+02 -1.3482E+02 -1.3999E+02 -1.4420E+02 -1.4761E+02 -1.4996E+02 -1.5251E+02 -1.5386E+02 -1.5326E+02
-2.1085E+02 -2.1093E+02 -2.1098E+02 -2.1100E+02 -2.1101E+02 -2.1101E+02 -2.1099E+02 -2.1096E+02 -2.1091E+02 -2.1086E+02 -2.1081E+02 -2.1075E+02 -2.1069E+02 -2.1063E+02 -2.1056E+02 -2.1050E+02 -2.1043E+02 -2.1037E+02 -2.1030E+02 -2.1023E+02 -2.1016E+02 -2.1009E+02 -2.1002E+02 -2.0995E+02 -2.0988E+02 -2.0981E+02 -2.0973E+02 -2.0966E+02 -2.0960E+02 -2.0954E+02 -2.0949E+02 -2.0947E+02 -2.0946E+02 -2.0948E+02 -2.0952E+02 -2.0958E+02 -2.0966E+02 -2.0974E+02 -2.0982E+02 -2.0988E+02 -2.0991E+02 -2.0990E+02 -2.0986E+02 -2.0979E+02 -2.0968E+02 -2.0956E+02 -2.0943E+02 -2.0930E+02 -2.0918E+02 -2.0908E+02 -2.0901E+02 -2.0897E+02 -2.0896E+02 -2.0897E+02 -2.0901E+02 -2.0907E+02 -2.0915E+02 -2.0924E+02 -2.0933E+02 -2.0943E+02 -2.0954E+02 -2.0964E+02 -2.0974E+02 -2.0984E+02 -2.0994E+02 -2.1002E+02 -2.1010E+02 -2.1017E+02 -2.1023E+02 -2.1029E+02 -2.1033E+02 -2.1037E+02 -2.1038E+02 -2.1038E+02 -2.1036E+02 -2.1031E+02 -2.1024E+02 -2.1014E+02 -2.1002E+02 -2.0989E+02 -2.0975E+02 -2.0960E+02 -2.0943E+02 -2.0923E+02 -2.0899E+02 -2.0868E+02 -2.0828E+02 -2.0776E+02 -2.0711E+02 -2.0632E+02 -2.0538E+02 -2.0430E+02 -2.0307E+02 -2.0168E+02 -2.0011E+02 -1.9835E+02 -1.9637E+02 -1.9418E+02 -1.9176E+02 -1.8910E+02 -1.8621E+02 -1.8306E+02 -1.7965E+02 -1.7596E+02 -1.7199E+02 -1.6774E+02 -1.6325E+02 -1.5856E+02 -1.5373E+02 -1.4879E+02 -1.4377E+02 -1.3869E+02 -1.3353E+02 -1.2826E+02 -1.2284E+02 -1.1727E+02 -1.1155E+02 -1.0570E+02 -9.9797E+01 -9.3933E+01 -8.8217E+01 -8.2763E+01 -7.7683E+01 -7.3070E+01 -6.8993E+01 -6.5490E+01 -6.2567E+01 -6.0202E+01 -5.8346E+01 -5.6935E+01 -5.5901E+01 -5.5172E+01 -5.4689E+01 -5.4400E+01 -5.4262E+01 -5.4243E+01 -5.4321E+01 -5.4478E+01 -5.4701E+01 -5.4983E+01 -5.5318E+01 -5.5699E+01 -5.6123E+01 -5.6587E+01 -5.7087E+01 -5.7621E+01 -5.8185E+01 -5.8779E+01 -5.9398E+01 -6.0042E+01 -6.0707E+01 -6.1392E+01 -6.2093E+01 -6.2808E+01 -6.3533E+01 -6.4266E+01 -6.5007E+01 -6.5766E+01 -6.6578E+01 -6.7526E+01 -6.8746E+01 -7.0438E+01 -7.2839E+01 -7.6173E+01 -8.0590E+01 -8.6123E+01 -9.2649E+01 -9.9904E+01 -1.0752E+02 -1.1511E+02 -1.2235E+02 -1.2898E+02 -1.3486E+02 -1.3997E+02 -1.4425E+02 -1.4784E+02 -1.5051E+02 -1.5338E+02 -1.5515E+02 -1.5512E+02
-2.1105E+02 -2.1114E+02 -2.1120E+02 -2.1122E+02 -2.1125E+02 -2.1125E+02 -2.1123E+02 -2.1120E+02 -2.1116E+02 -2.1111E+02 -2.1105E+02 -2.1099E+02 -2.1093E+02 -2.1086E+02 -2.1080E+02 -2.1073E+02 -2.1066E+02 -2.1059E+02 -2.1052E+02 -2.1045E+02 -2.1038E+02 -2.1030E+02 -2.1023E+02 -2.1015E+02 -2.1008E+02 -2.1000E+02 -2.0992E+02 -2.0985E+02 -2.0978E+02 -2.0971E+02 -2.0966E+02 -2.0963E+02 -2.0961E+02 -2.0962E+02 -2.0966E+02 -2.0971E+02 -2.0978E+02 -2.0985E+02 -2.0992E+02 -2.0997E+02 -2.0999E+02 -2.0998E+02 -2.0993E+02 -2.0984E+02 -2.0973E+02 -2.0960E+02 -2.0946E+02 -2.0932E+02 -2.0920E+02 -2.0910E+02 -2.0902E+02 -2.0898E+02 -2.0896E+02 -2.0897E+02 -2.0900E+02 -2.0906E+02 -2.0913E+02 -2.0921E+02 -2.0930E+02 -2.0940E+02 -2.0949E+02 -2.0959E+02 -2.0969E+02 -2.0980E+02 -2.0990E+02 -2.1000E+02 -2.1011E+02 -2.1022E+02 -2.1033E+02 -2.1044E+02 -2.1054E+02 -2.1063E+02 -2.1070E+02 -2.1074E+02 -2.1075E+02 -2.1073E+02 -2.1067E+02 -2.1057E+02 -2.1045E+02 -2.1029E+02 -2.1012E+02 -2.0993E+02 -2.0973E+02 -2.0949E+02 -2.0922E+02 -2.0889E+02 -2.0847E+02 -2.0795E+02 -2.0731E+02 -2.0654E+02 -2.0563E+02 -2.0459E+02 -2.0338E+02 -2.0200E+02 -2.0043E+02 -1.9864E+02 -1.9661E+02 -1.9433E+02 -1.9181E+02 -1.8904E+02 -1.8601E+02 -1.8274E+02 -1.7921E+02 -1.7541E+02 -1.7134E+02 -1.6702E+02 -1.6247E+02 -1.5773E+02 -1.5287E+02 -1.4791E+02 -1.4289E+02 -1.3781E+02 -1.3264E+02 -1.2735E+02 -1.2192E+02 -1.1632E+02 -1.1056E+02 -1.0468E+02 -9.8751E+01 -9.2880E+01 -8.7183E+01 -8.1779E+01 -7.6781E+01 -7.2278E+01 -6.8327E+01 -6.4956E+01 -6.2159E+01 -5.9902E+01 -5.8131E+01 -5.6780E+01 -5.5781E+01 -5.5069E+01 -5.4588E+01 -5.4290E+01 -5.4139E+01 -5.4105E+01 -5.4167E+01 -5.4307E+01 -5.4516E+01 -5.4783E+01 -5.5103E+01 -5.5470E+01 -5.5882E+01 -5.6333E+01 -5.6821E+01 -5.7344E+01 -5.7898E+01 -5.8482E+01 -5.9094E+01 -5.9731E+01 -6.0392E+01 -6.1074E+01 -6.1774E+01 -6.2490E+01 -6.3219E+01 -6.3958E+01 -6.4707E+01 -6.5482E+01 -6.6327E+01 -6.7342E+01 -6.8684E+01 -7.0566E+01 -7.3218E+01 -7.6845E+01 -8.1554E+01 -8.7327E+01 -9.3995E+01 -1.0127E+02 -1.0878E+02 -1.1618E+02 -1.2317E+02 -1.2957E+02 -1.3528E+02 -1.4034E+02 -1.4470E+02 -1.4851E+02 -1.5155E+02 -1.5478E+02 -1.5709E+02 -1.5785E+02
-2.1124E+02 -2.1134E+02 -2.1141E+02 -2.1144E+02 -2.1148E+02 -2.1149E+02 -2.1148E+02 -2.1145E+02 -2.1141E+02 -2.1136E+02 -2.1130E+02 -2.1124E+02 -2.1117E+02 -2.1110E+02 -2.1103E+02 -2.1096E+02 -2.1089E+02 -2.1082E+02 -2.1075E+02 -2.1067E+02 -2.1060E+02 -2.1052E+02 -2.1044E+02 -2.1036E+02 -2.1028E+02 -2.1020E+02 -2.1012E+02 -2.1004E+02 -2.0996E+02 -2.0989E+02 -2.0983E+02 -2.0979E+02 -2.0977E+02 -2.0977E+02 -2.0979E+02 -2.0983E+02 -2.0988E+02 -2.0994E+02 -2.0999E+02 -2.1003E+02 -2.1003E+02 -2.1001E+02 -2.0994E+02 -2.0985E+02 -2.0973E+02 -2.0960E+02 -2.0946E+02 -2.0932E+02 -2.0919E+02 -2.0909E+02 -2.0901E+02 -2.0896E+02 -2.0894E+02 -2.0894E+02 -2.0898E+02 -2.0903E+02 -2.0909E+02 -2.0917E+02 -2.0925E+02 -2.0934E+02 -2.0943E+02 -2.0953E+02 -2.0963E+02 -2.0973E+02 -2.0985E+02 -2.0997E+02 -2.1011E+02 -2.1026E+02 -2.1042E+02 -2.1058E+02 -2.1074E+02 -2.1089E+02 -2.1102E+02 -2.1112E+02 -2.1117E+02 -2.1118E+02 -2.1114E+02 -2.1105E+02 -2.1092E+02 -2.1074E+02 -2.1054E+02 -2.1031E+02 -2.1006E+02 -2.0979E+02 -2.0947E+02 -2.0911E+02 -2.0866E+02 -2.0813E+02 -2.0749E+02 -2.0674E+02 -2.0586E+02 -2.0483E+02 -2.0365E+02 -2.0228E+02 -2.0070E+02 -1.9888E+02 -1.9680E+02 -1.9445E+02 -1.9183E+02 -1.8894E+02 -1.8580E+02 -1.8240E+02 -1.7875E+02 -1.7484E+02 -1.7067E+02 -1.6626E+02 -1.6165E+02 -1.5686E+02 -1.5196E+02 -1.4697E+02 -1.4193E+02 -1.3682E+02 -1.3163E+02 -1.2632E+02 -1.2086E+02 -1.1523E+02 -1.0943E+02 -1.0353E+02 -9.7593E+01 -9.1732E+01 -8.6073E+01 -8.0736E+01 -7.5833E+01 -7.1446E+01 -6.7624E+01 -6.4383E+01 -6.1706E+01 -5.9551E+01 -5.7860E+01 -5.6565E+01 -5.5601E+01 -5.4906E+01 -5.4429E+01 -5.4127E+01 -5.3968E+01 -5.3923E+01 -5.3974E+01 -5.4103E+01 -5.4301E+01 -5.4558E+01 -5.4869E+01 -5.5227E+01 -5.5630E+01 -5.6073E+01 -5.6553E+01 -5.7068E+01 -5.7616E+01 -5.8194E+01 -5.8801E+01 -5.9434E+01 -6.0092E+01 -6.0773E+01 -6.1473E+01 -6.2191E+01 -6.2923E+01 -6.3668E+01 -6.4426E+01 -6.5217E+01 -6.6098E+01 -6.7183E+01 -6.8650E+01 -7.0721E+01 -7.3623E+01 -7.7539E+01 -8.2539E+01 -8.8558E+01 -9.5384E+01 -1.0270E+02 -1.1015E+02 -1.1740E+02 -1.2419E+02 -1.3040E+02 -1.3598E+02 -1.4099E+02 -1.4545E+02 -1.4948E+02 -1.5292E+02 -1.5651E+02 -1.5939E+02 -1.6102E+02
-2.1143E+02 -2.1154E+02 -2.1162E+02 -2.1166E+02 -2.1171E+02 -2.1172E+02 -2.1172E+02 -2.1170E+02 -2.1166E+02 -2.1161E+02 -2.1155E+02 -2.1148E+02 -2.1142E+02 -2.1135E+02 -2.1128E+02 -2.1120E+02 -2.1113E+02 -2.1105E+02 -2.1098E+02 -2.1090E+02 -2.1082E+02 -2.1074E+02 -2.1066E+02 -2.1058E+02 -2.1049E+02 -2.1041E+02 -2.1032E+02 -2.1024E+02 -2.1016E+02 -2.1008E+02 -2.1001E+02 -2.0996E+02 -2.0992E+02 -2.0991E+02 -2.0991E+02 -2.0993E+02 -2.0997E+02 -2.1001E+02 -2.1004E+02 -2.1005E+02 -2.1004E+02 -2.1000E+02 -2.0993E+02 -2.0983E+02 -2.0970E+02 -2.0956E+02 -2.0942E+02 -2.0928E+02 -2.0916E+02 -2.0905E+02 -2.0897E+02 -2.0892E+02 -2.0889E+02 -2.0890E+02 -2.0893E+02 -2.0898E+02 -2.0904E+02 -2.0912E+02 -2.0920E+02 -2.0928E+02 -2.0936E+02 -2.0945E+02 -2.0955E+02 -2.0966E+02 -2.0979E+02 -2.0994E+02 -2.1011E+02 -2.1030E+02 -2.1051E+02 -2.1073E+02 -2.1096E+02 -2.1117E+02 -2.1136E+02 -2.1152E+02 -2.1163E+02 -2.1168E+02 -2.1166E+02 -2.1158E+02 -2.1145E+02 -2.1125E+02 -2.1102E+02 -2.1075E+02 -2.1045E+02 -2.1012E+02 -2.0976E+02 -2.0934E+02 -2.0887E+02 -2.0831E+02 -2.0766E+02 -2.0691E+02 -2.0604E+02 -2.0504E+02 -2.0387E+02 -2.0251E+02 -2.0093E+02 -1.9908E+02 -1.9696E+02 -1.9454E+02 -1.9183E+02 -1.8884E+02 -1.8558E+02 -1.8207E+02 -1.7830E+02 -1.7428E+02 -1.7001E+02 -1.6552E+02 -1.6084E+02 -1.5600E+02 -1.5105E+02 -1.4602E+02 -1.4093E+02 -1.3578E+02 -1.3055E+02 -1.2520E+02 -1.1969E+02 -1.1403E+02 -1.0821E+02 -1.0228E+02 -9.6348E+01 -9.0511E+01 -8.4902E+01 -7.9644E+01 -7.4843E+01 -7.0576E+01 -6.6883E+01 -6.3769E+01 -6.1207E+01 -5.9149E+01 -5.7532E+01 -5.6290E+01 -5.5359E+01 -5.4683E+01 -5.4213E+01 -5.3912E+01 -5.3749E+01 -5.3698E+01 -5.3742E+01 -5.3865E+01 -5.4057E+01 -5.4308E+01 -5.4613E+01 -5.4967E+01 -5.5364E+01 -5.5802E+01 -5.6279E+01 -5.6790E+01 -5.7334E+01 -5.7909E+01 -5.8514E+01 -5.9145E+01 -5.9802E+01 -6.0483E+01 -6.1185E+01 -6.1905E+01 -6.2642E+01 -6.3391E+01 -6.4158E+01 -6.4966E+01 -6.5881E+01 -6.7034E+01 -6.8618E+01 -7.0865E+01 -7.3999E+01 -7.8183E+01 -8.3456E+01 -8.9710E+01 -9.6698E+01 -1.0409E+02 -1.1151E+02 -1.1866E+02 -1.2531E+02 -1.3137E+02 -1.3686E+02 -1.4185E+02 -1.4640E+02 -1.5063E+02 -1.5441E+02 -1.5833E+02 -1.6170E+02 -1.6412E+02
-2.1162E+02 -2.1174E+02 -2.1183E+02 -2.1188E+02 -2.1193E+02 -2.1196E+02 -2.1196E+02 -2.1194E+02 -2.1191E+02 -2.1186E+02 -2.1180E+02 -2.1173E+02 -2.1167E+02 -2.1159E+02 -2.1152E+02 -2.1145E+02 -2.1137E+02 -2.1129E+02 -2.1121E+02 -2.1113E+02 -2.1105E+02 -2.1097E+02 -2.1088E+02 -2.1080E+02 -2.1071E+02 -2.1062E+02 -2.1053E+02 -2.1045E+02 -2.1036E+02 -2.1027E+02 -2.1020E+02 -2.1013E+02 -2.1008E+02 -2.1005E+02 -2.1003E+02 -2.1003E+02 -2.1005E+02 -2.1006E+02 -2.1007E+02 -2.1006E+02 -2.1003E+02 -2.0997E+02 -2.0989E+02 -2.0978E+02 -2.0965E+02 -2.0951E+02 -2.0937E+02 -2.0923E+02 -2.0910E+02 -2.0900E+02 -2.0892E+02 -2.0886E+02 -2.0884E+02 -2.0885E+02 -2.0888E+02 -2.0892E+02 -2.0899E+02 -2.0906E+02 -2.0913E+02 -2.0921E+02 -2.0929E+02 -2.0938E+02 -2.0948E+02 -2.0960E+02 -2.0974E+02 -2.0991E+02 -2.1012E+02 -2.1035E+02 -2.1061E+02 -2.1089E+02 -2.1118E+02 -2.1146E+02 -2.1172E+02 -2.1194E+02 -2.1211E+02 -2.1220E+02 -2.1222E+02 -2.1216E+02 -2.1203E+02 -2.1182E+02 -2.1155E+02 -2.1123E+02 -2.1088E+02 -2.1050E+02 -2.1008E+02 -2.0961E+02 -2.0909E+02 -2.0850E+02 -2.0783E+02 -2.0707E+02 -2.0620E+02 -2.0520E+02 -2.0404E+02 -2.0269E+02 -2.0110E+02 -1.9923E+02 -1.9707E+02 -1.9460E+02 -1.9182E+02 -1.8874E+02 -1.8538E+02 -1.8176E+02 -1.7788E+02 -1.7376E+02 -1.6941E+02 -1.6484E+02 -1.6009E+02 -1.5519E+02 -1.5019E+02 -1.4510E+02 -1.3996E+02 -1.3475E+02 -1.2945E+02 -1.2404E+02 -1.1848E+02 -1.1276E+02 -1.0690E+02 -1.0097E+02 -9.5037E+01 -8.9233E+01 -8.3682E+01 -7.8509E+01 -7.3814E+01 -6.9668E+01 -6.6101E+01 -6.3109E+01 -6.0657E+01 -5.8690E+01 -5.7145E+01 -5.5955E+01 -5.5058E+01 -5.4402E+01 -5.3943E+01 -5.3646E+01 -5.3483E+01 -5.3431E+01 -5.3473E+01 -5.3593E+01 -5.3783E+01 -5.4032E+01 -5.4335E+01 -5.4686E+01 -5.5082E+01 -5.5519E+01 -5.5994E+01 -5.6504E+01 -5.7048E+01 -5.7623E+01 -5.8227E+01 -5.8859E+01 -5.9517E+01 -6.0200E+01 -6.0904E+01 -6.1628E+01 -6.2369E+01 -6.3125E+01 -6.3900E+01 -6.4722E+01 -6.5667E+01 -6.6878E+01 -6.8563E+01 -7.0962E+01 -7.4299E+01 -7.8721E+01 -8.4241E+01 -9.0715E+01 -9.7871E+01 -1.0535E+02 -1.1280E+02 -1.1990E+02 -1.2647E+02 -1.3245E+02 -1.3787E+02 -1.4286E+02 -1.4748E+02 -1.5185E+02 -1.5589E+02 -1.6004E+02 -1.6378E+02 -1.6680E+02
-2.1181E+02 -2.1195E+02 -2.1204E+02 -2.1210E+02 -2.1216E+02 -2.1219E+02 -2.1220E+02 -2.1219E+02 -2.1215E+02 -2.1211E+02 -2.1205E+02 -2.1199E+02 -2.1192E+02 -2.1184E+02 -2.1177E+02 -2.1169E+02 -2.1161E+02 -2.1153E+02 -2.1145E+02 -2.1137E+02 -2.1129E+02 -2.1120E+02 -2.1111E+02 -2.1102E+02 -2.1093E+02 -2.1084E+02 -2.1075E+02 -2.1066E+02 -2.1057E+02 -2.1048E+02 -2.1039E+02 -2.1031E+02 -2.1025E+02 -2.1020E+02 -2.1016E+02 -2.1014E+02 -2.1013E+02 -2.1012E+02 -2.1010E+02 -2.1007E+02 -2.1001E+02 -2.0994E+02 -2.0984E+02 -2.0972E+02 -2.0959E+02 -2.0944E+02 -2.0930E+02 -2.0916E+02 -2.0904E+02 -2.0894E+02 -2.0886E+02 -2.0880E+02 -2.0878E+02 -2.0879E+02 -2.0882E+02 -2.0886E+02 -2.0893E+02 -2.0899E+02 -2.0907E+02 -2.0914E+02 -2.0922E+02 -2.0931E+02 -2.0942E+02 -2.0954E+02 -2.0970E+02 -2.0990E+02 -2.1014E+02 -2.1042E+02 -2.1073E+02 -2.1107E+02 -2.1142E+02 -2.1177E+02 -2.1210E+02 -2.1238E+02 -2.1261E+02 -2.1276E+02 -2.1282E+02 -2.1279E+02 -2.1266E+02 -2.1244E+02 -2.1214E+02 -2.1178E+02 -2.1137E+02 -2.1093E+02 -2.1044E+02 -2.0991E+02 -2.0933E+02 -2.0870E+02 -2.0799E+02 -2.0721E+02 -2.0632E+02 -2.0532E+02 -2.0416E+02 -2.0280E+02 -2.0120E+02 -1.9933E+02 -1.9714E+02 -1.9463E+02 -1.9179E+02 -1.8865E+02 -1.8521E+02 -1.8150E+02 -1.7753E+02 -1.7332E+02 -1.6888E+02 -1.6425E+02 -1.5943E+02 -1.5447E+02 -1.4941E+02 -1.4426E+02 -1.3904E+02 -1.3375E+02 -1.2837E+02 -1.2287E+02 -1.1724E+02 -1.1146E+02 -1.0556E+02 -9.9606E+01 -9.3682E+01 -8.7911E+01 -8.2423E+01 -7.7336E+01 -7.2748E+01 -6.8720E+01 -6.5277E+01 -6.2402E+01 -6.0054E+01 -5.8175E+01 -5.6699E+01 -5.5559E+01 -5.4698E+01 -5.4065E+01 -5.3620E+01 -5.3331E+01 -5.3173E+01 -5.3123E+01 -5.3166E+01 -5.3288E+01 -5.3478E+01 -5.3728E+01 -5.4032E+01 -5.4384E+01 -5.4781E+01 -5.5220E+01 -5.5696E+01 -5.6208E+01 -5.6754E+01 -5.7330E+01 -5.7937E+01 -5.8571E+01 -5.9232E+01 -5.9918E+01 -6.0627E+01 -6.1356E+01 -6.2102E+01 -6.2863E+01 -6.3647E+01 -6.4480E+01 -6.5446E+01 -6.6701E+01 -6.8465E+01 -7.0985E+01 -7.4491E+01 -7.9117E+01 -8.4861E+01 -9.1551E+01 -9.8888E+01 -1.0650E+02 -1.1402E+02 -1.2113E+02 -1.2768E+02 -1.3362E+02 -1.3902E+02 -1.4400E+02 -1.4865E+02 -1.5310E+02 -1.5729E+02 -1.6157E+02 -1.6551E+02 -1.6886E+02
-2.1201E+02 -2.1215E+02 -2.1225E+02 -2.1232E+02 -2.1239E+02 -2.1242E+02 -2.1244E+02 -2.1243E+02 -2.1240E+02 -2.1236E+02 -2.1230E+02 -2.1224E+02 -2.1217E+02 -2.1210E+02 -2.1202E+02 -2.1194E+02 -2.1186E+02 -2.1178E+02 -2.1170E+02 -2.1161E+02 -2.1152E+02 -2.1144E+02 -2.1135E+02 -2.1126E+02 -2.1116E+02 -2.1107E+02 -2.1097E+02 -2.1088E+02 -2.1078E+02 -2.1068E+02 -2.1059E+02 -2.1050E+02 -2.1043E+02 -2.1036E+02 -2.1030E+02 -2.1026E+02 -2.1022E+02 -2.1018E+02 -2.1013E+02 -2.1008E+02 -2.1000E+02 -2.0991E+02 -2.0979E+02 -2.0967E+02 -2.0953E+02 -2.0938E+02 -2.0924E+02 -2.0910E+02 -2.0898E+02 -2.0887E+02 -2.0880E+02 -2.0874E+02 -2.0872E+02 -2.0873E+02 -2.0876E+02 -2.0881E+02 -2.0887E+02 -2.0894E+02 -2.0901E+02 -2.0909E+02 -2.0917E+02 -2.0926E+02 -2.0937E+02 -2.0951E+02 -2.0969E+02 -2.0991E+02 -2.1018E+02 -2.1050E+02 -2.1087E+02 -2.1126E+02 -2.1168E+02 -2.1209E+02 -2.1249E+02 -2.1284E+02 -2.1314E+02 -2.1335E+02 -2.1346E+02 -2.1346E+02 -2.1334E+02 -2.1311E+02 -2.1279E+02 -2.1239E+02 -2.1192E+02 -2.1141E+02 -2.1085E+02 -2.1025E+02 -2.0960E+02 -2.0891E+02 -2.0816E+02 -2.0733E+02 -2.0642E+02 -2.0540E+02 -2.0423E+02 -2.0286E+02 -2.0126E+02 -1.9937E+02 -1.9716E+02 -1.9463E+02 -1.9176E+02 -1.8856E+02 -1.8506E+02 -1.8128E+02 -1.7724E+02 -1.7295E+02 -1.6845E+02 -1.6375E+02 -1.5887E+02 -1.5386E+02 -1.4872E+02 -1.4350E+02 -1.3820E+02 -1.3281E+02 -1.2733E+02 -1.2174E+02 -1.1601E+02 -1.1015E+02 -1.0420E+02 -9.8218E+01 -9.2296E+01 -8.6557E+01 -8.1129E+01 -7.6128E+01 -7.1644E+01 -6.7733E+01 -6.4407E+01 -6.1644E+01 -5.9397E+01 -5.7603E+01 -5.6193E+01 -5.5105E+01 -5.4280E+01 -5.3672E+01 -5.3245E+01 -5.2968E+01 -5.2818E+01 -5.2775E+01 -5.2823E+01 -5.2949E+01 -5.3143E+01 -5.3397E+01 -5.3704E+01 -5.4061E+01 -5.4461E+01 -5.4903E+01 -5.5383E+01 -5.5899E+01 -5.6448E+01 -5.7029E+01 -5.7640E+01 -5.8279E+01 -5.8944E+01 -5.9635E+01 -6.0349E+01 -6.1083E+01 -6.1836E+01 -6.2604E+01 -6.3395E+01 -6.4236E+01 -6.5214E+01 -6.6496E+01 -6.8313E+01 -7.0923E+01 -7.4564E+01 -7.9369E+01 -8.5325E+01 -9.2234E+01 -9.9780E+01 -1.0757E+02 -1.1521E+02 -1.2241E+02 -1.2899E+02 -1.3493E+02 -1.4031E+02 -1.4528E+02 -1.4994E+02 -1.5440E+02 -1.5862E+02 -1.6292E+02 -1.6690E+02 -1.7036E+02
-2.1220E+02 -2.1235E+02 -2.1246E+02 -2.1254E+02 -2.1261E+02 -2.1266E+02 -2.1268E+02 -2.1268E+02 -2.1265E+02 -2.1261E+02 -2.1256E+02 -2.1249E+02 -2.1242E+02 -2.1235E+02 -2.1227E+02 -2.1219E+02 -2.1211E+02 -2.1203E+02 -2.1194E+02 -2.1185E+02 -2.1177E+02 -2.1168E+02 -2.1158E+02 -2.1149E+02 -2.1140E+02 -2.1130E+02 -2.1120E+02 -2.1110E+02 -2.1100E+02 -2.1090E+02 -2.1080E+02 -2.1070E+02 -2.1061E+02 -2.1053E+02 -2.1045E+02 -2.1039E+02 -2.1032E+02 -2.1026E+02 -2.1019E+02 -2.1010E+02 -2.1001E+02 -2.0989E+02 -2.0977E+02 -2.0963E+02 -2.0948E+02 -2.0933E+02 -2.0918E+02 -2.0904E+02 -2.0892E+02 -2.0882E+02 -2.0874E+02 -2.0869E+02 -2.0867E+02 -2.0868E+02 -2.0871E+02 -2.0876E+02 -2.0883E+02 -2.0890E+02 -2.0897E+02 -2.0905E+02 -2.0913E+02 -2.0923E+02 -2.0935E+02 -2.0950E+02 -2.0970E+02 -2.0995E+02 -2.1026E+02 -2.1062E+02 -2.1103E+02 -2.1148E+02 -2.1195E+02 -2.1243E+02 -2.1289E+02 -2.1332E+02 -2.1368E+02 -2.1395E+02 -2.1411E+02 -2.1415E+02 -2.1406E+02 -2.1383E+02 -2.1349E+02 -2.1305E+02 -2.1253E+02 -2.1194E+02 -2.1131E+02 -2.1063E+02 -2.0991E+02 -2.0914E+02 -2.0833E+02 -2.0746E+02 -2.0650E+02 -2.0545E+02 -2.0425E+02 -2.0287E+02 -2.0125E+02 -1.9936E+02 -1.9714E+02 -1.9460E+02 -1.9170E+02 -1.8848E+02 -1.8494E+02 -1.8110E+02 -1.7700E+02 -1.7266E+02 -1.6810E+02 -1.6334E+02 -1.5841E+02 -1.5334E+02 -1.4814E+02 -1.4283E+02 -1.3743E+02 -1.3193E+02 -1.2634E+02 -1.2063E+02 -1.1479E+02 -1.0885E+02 -1.0283E+02 -9.6813E+01 -9.0887E+01 -8.5176E+01 -7.9806E+01 -7.4888E+01 -7.0505E+01 -6.6705E+01 -6.3492E+01 -6.0836E+01 -5.8685E+01 -5.6972E+01 -5.5629E+01 -5.4591E+01 -5.3805E+01 -5.3227E+01 -5.2820E+01 -5.2559E+01 -5.2421E+01 -5.2388E+01 -5.2444E+01 -5.2577E+01 -5.2778E+01 -5.3038E+01 -5.3352E+01 -5.3714E+01 -5.4120E+01 -5.4568E+01 -5.5054E+01 -5.5575E+01 -5.6130E+01 -5.6717E+01 -5.7334E+01 -5.7978E+01 -5.8650E+01 -5.9347E+01 -6.0067E+01 -6.0808E+01 -6.1567E+01 -6.2343E+01 -6.3141E+01 -6.3986E+01 -6.4968E+01 -6.6259E+01 -6.8107E+01 -7.0779E+01 -7.4530E+01 -7.9498E+01 -8.5664E+01 -9.2814E+01 -1.0061E+02 -1.0862E+02 -1.1646E+02 -1.2379E+02 -1.3045E+02 -1.3641E+02 -1.4180E+02 -1.4673E+02 -1.5134E+02 -1.5575E+02 -1.5990E+02 -1.6414E+02 -1.6804E+02 -1.7140E+02
-2.1239E+02 -2.1255E+02 -2.1267E+02 -2.1275E+02 -2.1283E+02 -2.1289E+02 -2.1292E+02 -2.1292E+02 -2.1290E+02 -2.1287E+02 -2.1281E+02 -2.1275E+02 -2.1268E+02 -2.1260E+02 -2.1253E+02 -2.1244E+02 -2.1236E+02 -2.1228E+02 -2.1219E+02 -2.1210E+02 -2.1201E+02 -2.1192E+02 -2.1182E+02 -2.1173E+02 -2.1163E+02 -2.1153E+02 -2.1143E+02 -2.1133E+02 -2.1122E+02 -2.1112E+02 -2.1101E+02 -2.1091E+02 -2.1081E+02 -2.1071E+02 -2.1062E+02 -2.1053E+02 -2.1044E+02 -2.1036E+02 -2.1026E+02 -2.1015E+02 -2.1004E+02 -2.0990E+02 -2.0976E+02 -2.0961E+02 -2.0945E+02 -2.0930E+02 -2.0915E+02 -2.0901E+02 -2.0888E+02 -2.0878E+02 -2.0870E+02 -2.0865E+02 -2.0863E+02 -2.0864E+02 -2.0867E+02 -2.0873E+02 -2.0880E+02 -2.0887E+02 -2.0895E+02 -2.0903E+02 -2.0912E+02 -2.0922E+02 -2.0935E+02 -2.0952E+02 -2.0974E+02 -2.1002E+02 -2.1036E+02 -2.1077E+02 -2.1122E+02 -2.1172E+02 -2.1225E+02 -2.1279E+02 -2.1331E+02 -2.1380E+02 -2.1423E+02 -2.1457E+02 -2.1479E+02 -2.1487E+02 -2.1481E+02 -2.1459E+02 -2.1423E+02 -2.1376E+02 -2.1318E+02 -2.1252E+02 -2.1181E+02 -2.1105E+02 -2.1024E+02 -2.0940E+02 -2.0851E+02 -2.0758E+02 -2.0657E+02 -2.0547E+02 -2.0424E+02 -2.0284E+02 -2.0120E+02 -1.9930E+02 -1.9708E+02 -1.9453E+02 -1.9163E+02 -1.8838E+02 -1.8482E+02 -1.8095E+02 -1.7681E+02 -1.7242E+02 -1.6782E+02 -1.6301E+02 -1.5803E+02 -1.5289E+02 -1.4762E+02 -1.4222E+02 -1.3672E+02 -1.3110E+02 -1.2538E+02 -1.1954E+02 -1.1359E+02 -1.0755E+02 -1.0146E+02 -9.5391E+01 -8.9457E+01 -8.3770E+01 -7.8454E+01 -7.3615E+01 -6.9329E+01 -6.5634E+01 -6.2529E+01 -5.9976E+01 -5.7917E+01 -5.6284E+01 -5.5006E+01 -5.4021E+01 -5.3276E+01 -5.2729E+01 -5.2347E+01 -5.2105E+01 -5.1983E+01 -5.1962E+01 -5.2029E+01 -5.2172E+01 -5.2382E+01 -5.2652E+01 -5.2974E+01 -5.3344E+01 -5.3758E+01 -5.4213E+01 -5.4706E+01 -5.5235E+01 -5.5798E+01 -5.6392E+01 -5.7016E+01 -5.7668E+01 -5.8347E+01 -5.9052E+01 -5.9779E+01 -6.0528E+01 -6.1296E+01 -6.2080E+01 -6.2884E+01 -6.3730E+01 -6.4709E+01 -6.5997E+01 -6.7857E+01 -7.0573E+01 -7.4419E+01 -7.9545E+01 -8.5935E+01 -9.3355E+01 -1.0144E+02 -1.0974E+02 -1.1783E+02 -1.2534E+02 -1.3212E+02 -1.3813E+02 -1.4349E+02 -1.4837E+02 -1.5288E+02 -1.5717E+02 -1.6119E+02 -1.6529E+02 -1.6901E+02 -1.7216E+02
-2.1259E+02 -2.1274E+02 -2.1287E+02 -2.1297E+02 -2.1306E+02 -2.1312E+02 -2.1315E+02 -2.1316E+02 -2.1315E+02 -2.1312E+02 -2.1307E+02 -2.1301E+02 -2.1294E+02 -2.1286E+02 -2.1278E+02 -2.1270E+02 -2.1261E+02 -2.1253E+02 -2.1244E+02 -2.1235E+02 -2.1226E+02 -2.1216E+02 -2.1207E+02 -2.1197E+02 -2.1187E+02 -2.1177E+02 -2.1167E+02 -2.1156E+02 -2.1145E+02 -2.1134E+02 -2.1123E+02 -2.1112E+02 -2.1101E+02 -2.1091E+02 -2.1080E+02 -2.1069E+02 -2.1059E+02 -2.1048E+02 -2.1036E+02 -2.1023E+02 -2.1009E+02 -2.0994E+02 -2.0979E+02 -2.0962E+02 -2.0946E+02 -2.0929E+02 -2.0914E+02 -2.0899E+02 -2.0886E+02 -2.0876E+02 -2.0868E+02 -2.0863E+02 -2.0861E+02 -2.0862E+02 -2.0866E+02 -2.0872E+02 -2.0879E+02 -2.0887E+02 -2.0895E+02 -2.0904E+02 -2.0913E+02 -2.0924E+02 -2.0938E+02 -2.0957E+02 -2.0981E+02 -2.1012E+02 -2.1050E+02 -2.1094E+02 -2.1144E+02 -2.1199E+02 -2.1257E+02 -2.1316E+02 -2.1374E+02 -2.1429E+02 -2.1479E+02 -2.1519E+02 -2.1547E+02 -2.1561E+02 -2.1558E+02 -2.1538E+02 -2.1501E+02 -2.1450E+02 -2.1387E+02 -2.1315E+02 -2.1235E+02 -2.1150E+02 -2.1060E+02 -2.0967E+02 -2.0870E+02 -2.0770E+02 -2.0663E+02 -2.0548E+02 -2.0420E+02 -2.0276E+02 -2.0111E+02 -1.9919E+02 -1.9697E+02 -1.9442E+02 -1.9151E+02 -1.8827E+02 -1.8469E+02 -1.8080E+02 -1.7663E+02 -1.7221E+02 -1.6756E+02 -1.6272E+02 -1.5768E+02 -1.5249E+02 -1.4714E+02 -1.4164E+02 -1.3603E+02 -1.3028E+02 -1.2442E+02 -1.1845E+02 -1.1237E+02 -1.0622E+02 -1.0006E+02 -9.3946E+01 -8.8000E+01 -8.2335E+01 -7.7071E+01 -7.2307E+01 -6.8114E+01 -6.4521E+01 -6.1518E+01 -5.9064E+01 -5.7094E+01 -5.5538E+01 -5.4326E+01 -5.3394E+01 -5.2692E+01 -5.2180E+01 -5.1826E+01 -5.1607E+01 -5.1503E+01 -5.1499E+01 -5.1580E+01 -5.1736E+01 -5.1957E+01 -5.2237E+01 -5.2570E+01 -5.2950E+01 -5.3373E+01 -5.3838E+01 -5.4340E+01 -5.4878E+01 -5.5449E+01 -5.6052E+01 -5.6685E+01 -5.7346E+01 -5.8034E+01 -5.8747E+01 -5.9484E+01 -6.0242E+01 -6.1019E+01 -6.1811E+01 -6.2623E+01 -6.3469E+01 -6.4440E+01 -6.5719E+01 -6.7582E+01 -7.0332E+01 -7.4269E+01 -7.9559E+01 -8.6191E+01 -9.3915E+01 -1.0234E+02 -1.1098E+02 -1.1936E+02 -1.2711E+02 -1.3402E+02 -1.4008E+02 -1.4541E+02 -1.5019E+02 -1.5457E+02 -1.5868E+02 -1.6251E+02 -1.6642E+02 -1.6991E+02 -1.7282E+02
-2.1278E+02 -2.1294E+02 -2.1308E+02 -2.1318E+02 -2.1328E+02 -2.1335E+02 -2.1339E+02 -2.1341E+02 -2.1340E+02 -2.1337E+02 -2.1332E+02 -2.1327E+02 -2.1320E+02 -2.1312E+02 -2.1304E+02 -2.1296E+02 -2.1287E+02 -2.1278E+02 -2.1269E+02 -2.1260E+02 -2.1251E+02 -2.1241E+02 -2.1232E+02 -2.1222E+02 -2.1212E+02 -2.1201E+02 -2.1191E+02 -2.1180E+02 -2.1169E+02 -2.1158E+02 -2.1146E+02 -2.1134E+02 -2.1123E+02 -2.1111E+02 -2.1099E+02 -2.1087E+02 -2.1075E+02 -2.1062E+02 -2.1048E+02 -2.1034E+02 -2.1018E+02 -2.1002E+02 -2.0985E+02 -2.0967E+02 -2.0950E+02 -2.0932E+02 -2.0916E+02 -2.0901E+02 -2.0887E+02 -2.0876E+02 -2.0868E+02 -2.0863E+02 -2.0861E+02 -2.0862E+02 -2.0867E+02 -2.0873E+02 -2.0880E+02 -2.0889E+02 -2.0897E+02 -2.0907E+02 -2.0917E+02 -2.0929E+02 -2.0944E+02 -2.0965E+02 -2.0991E+02 -2.1025E+02 -2.1066E+02 -2.1114E+02 -2.1168E+02 -2.1227E+02 -2.1289E+02 -2.1353E+02 -2.1417E+02 -2.1478E+02 -2.1534E+02 -2.1581E+02 -2.1615E+02 -2.1634E+02 -2.1635E+02 -2.1617E+02 -2.1581E+02 -2.1527E+02 -2.1459E+02 -2.1380E+02 -2.1292E+02 -2.1197E+02 -2.1098E+02 -2.0996E+02 -2.0891E+02 -2.0782E+02 -2.0668E+02 -2.0546E+02 -2.0414E+02 -2.0266E+02 -2.0098E+02 -1.9904E+02 -1.9681E+02 -1.9426E+02 -1.9136E+02 -1.8811E+02 -1.8452E+02 -1.8062E+02 -1.7643E+02 -1.7198E+02 -1.6731E+02 -1.6242E+02 -1.5734E+02 -1.5207E+02 -1.4664E+02 -1.4105E+02 -1.3531E+02 -1.2943E+02 -1.2343E+02 -1.1731E+02 -1.1111E+02 -1.0486E+02 -9.8614E+01 -9.2461E+01 -8.6505E+01 -8.0864E+01 -7.5651E+01 -7.0961E+01 -6.6857E+01 -6.3361E+01 -6.0458E+01 -5.8098E+01 -5.6215E+01 -5.4736E+01 -5.3589E+01 -5.2712E+01 -5.2056E+01 -5.1581E+01 -5.1259E+01 -5.1066E+01 -5.0984E+01 -5.0998E+01 -5.1096E+01 -5.1267E+01 -5.1502E+01 -5.1795E+01 -5.2140E+01 -5.2531E+01 -5.2966E+01 -5.3441E+01 -5.3954E+01 -5.4503E+01 -5.5084E+01 -5.5697E+01 -5.6340E+01 -5.7012E+01 -5.7710E+01 -5.8434E+01 -5.9181E+01 -5.9949E+01 -6.0735E+01 -6.1538E+01 -6.2358E+01 -6.3204E+01 -6.4167E+01 -6.5436E+01 -6.7302E+01 -7.0089E+01 -7.4123E+01 -7.9588E+01 -8.6482E+01 -9.4538E+01 -1.0334E+02 -1.1235E+02 -1.2107E+02 -1.2907E+02 -1.3614E+02 -1.4224E+02 -1.4752E+02 -1.5217E+02 -1.5637E+02 -1.6027E+02 -1.6387E+02 -1.6753E+02 -1.7077E+02 -1.7342E+02
-2.1297E+02 -2.1314E+02 -2.1328E+02 -2.1339E+02 -2.1350E+02 -2.1357E+02 -2.1363E+02 -2.1365E+02 -2.1365E+02 -2.1362E+02 -2.1358E+02 -2.1352E+02 -2.1346E+02 -2.1338E+02 -2.1330E+02 -2.1321E+02 -2.1313E+02 -2.1304E+02 -2.1295E+02 -2.1285E+02 -2.1276E+02 -2.1266E+02 -2.1256E+02 -2.1246E+02 -2.1236E+02 -2.1226E+02 -2.1215E+02 -2.1204E+02 -2.1193E+02 -2.1181E+02 -2.1169E+02 -2.1157E+02 -2.1145E+02 -2.1132E+02 -2.1119E+02 -2.1106E+02 -2.1093E+02 -2.1078E+02 -2.1063E+02 -2.1047E+02 -2.1030E+02 -2.1012E+02 -2.0994E+02 -2.0975E+02 -2.0957E+02 -2.0939E+02 -2.0921E+02 -2.0905E+02 -2.0891E+02 -2.0880E+02 -2.0871E+02 -2.0866E+02 -2.0864E+02 -2.0865E+02 -2.0870E+02 -2.0876E+02 -2.0884E+02 -2.0893E+02 -2.0902E+02 -2.0912E+02 -2.0923E+02 -2.0936E+02 -2.0953E+02 -2.0975E+02 -2.1004E+02 -2.1040E+02 -2.1084E+02 -2.1135E+02 -2.1193E+02 -2.1256E+02 -2.1322E+02 -2.1391E+02 -2.1460E+02 -2.1526E+02 -2.1588E+02 -2.1641E+02 -2.1682E+02 -2.1707E+02 -2.1713E+02 -2.1697E+02 -2.1661E+02 -2.1606E+02 -2.1533E+02 -2.1446E+02 -2.1350E+02 -2.1246E+02 -2.1137E+02 -2.1025E+02 -2.0911E+02 -2.0793E+02 -2.0672E+02 -2.0544E+02 -2.0406E+02 -2.0253E+02 -2.0082E+02 -1.9886E+02 -1.9662E+02 -1.9406E+02 -1.9115E+02 -1.8790E+02 -1.8431E+02 -1.8039E+02 -1.7619E+02 -1.7172E+02 -1.6701E+02 -1.6208E+02 -1.5695E+02 -1.5161E+02 -1.4609E+02 -1.4039E+02 -1.3452E+02 -1.2850E+02 -1.2235E+02 -1.1610E+02 -1.0977E+02 -1.0342E+02 -9.7108E+01 -9.0920E+01 -8.4961E+01 -7.9347E+01 -7.4188E+01 -6.9572E+01 -6.5555E+01 -6.2153E+01 -5.9345E+01 -5.7078E+01 -5.5280E+01 -5.3877E+01 -5.2796E+01 -5.1976E+01 -5.1368E+01 -5.0934E+01 -5.0646E+01 -5.0482E+01 -5.0425E+01 -5.0461E+01 -5.0578E+01 -5.0766E+01 -5.1017E+01 -5.1325E+01 -5.1683E+01 -5.2088E+01 -5.2536E+01 -5.3024E+01 -5.3549E+01 -5.4109E+01 -5.4702E+01 -5.5327E+01 -5.5982E+01 -5.6665E+01 -5.7375E+01 -5.8110E+01 -5.8869E+01 -5.9648E+01 -6.0446E+01 -6.1259E+01 -6.2088E+01 -6.2937E+01 -6.3895E+01 -6.5159E+01 -6.7035E+01 -6.9866E+01 -7.4006E+01 -7.9658E+01 -8.6827E+01 -9.5231E+01 -1.0443E+02 -1.1384E+02 -1.2292E+02 -1.3119E+02 -1.3842E+02 -1.4456E+02 -1.4978E+02 -1.5427E+02 -1.5825E+02 -1.6189E+02 -1.6522E+02 -1.6860E+02 -1.7155E+02 -1.7395E+02
-2.1316E+02 -2.1334E+02 -2.1349E+02 -2.1360E+02 -2.1372E+02 -2.1380E+02 -2.1386E+02 -2.1389E+02 -2.1390E+02 -2.1388E+02 -2.1384E+02 -2.1378E+02 -2.1372E+02 -2.1364E+02 -2.1356E+02 -2.1347E+02 -2.1339E+02 -2.1330E+02 -2.1320E+02 -2.1311E+02 -2.1301E+02 -2.1292E+02 -2.1282E+02 -2.1271E+02 -2.1261E+02 -2.1250E+02 -2.1239E+02 -2.1228E+02 -2.1217E+02 -2.1205E+02 -2.1193E+02 -2.1180E+02 -2.1167E+02 -2.1154E+02 -2.1141E+02 -2.1127E+02 -2.1112E+02 -2.1097E+02 -2.1080E+02 -2.1063E+02 -2.1045E+02 -2.1026E+02 -2.1006E+02 -2.0986E+02 -2.0967E+02 -2.0948E+02 -2.0930E+02 -2.0913E+02 -2.0899E+02 -2.0886E+02 -2.0877E+02 -2.0872E+02 -2.0870E+02 -2.0871E+02 -2.0875E+02 -2.0882E+02 -2.0890E+02 -2.0899E+02 -2.0909E+02 -2.0919E+02 -2.0931E+02 -2.0945E+02 -2.0963E+02 -2.0987E+02 -2.1018E+02 -2.1057E+02 -2.1103E+02 -2.1158E+02 -2.1219E+02 -2.1285E+02 -2.1355E+02 -2.1428E+02 -2.1501E+02 -2.1573E+02 -2.1640E+02 -2.1700E+02 -2.1747E+02 -2.1778E+02 -2.1788E+02 -2.1776E+02 -2.1741E+02 -2.1683E+02 -2.1606E+02 -2.1513E+02 -2.1408E+02 -2.1295E+02 -2.1176E+02 -2.1054E+02 -2.0930E+02 -2.0805E+02 -2.0675E+02 -2.0540E+02 -2.0396E+02 -2.0239E+02 -2.0063E+02 -1.9865E+02 -1.9639E+02 -1.9381E+02 -1.9090E+02 -1.8764E+02 -1.8403E+02 -1.8010E+02 -1.7588E+02 -1.7138E+02 -1.6664E+02 -1.6168E+02 -1.5648E+02 -1.5108E+02 -1.4546E+02 -1.3964E+02 -1.3363E+02 -1.2747E+02 -1.2117E+02 -1.1478E+02 -1.0834E+02 -1.0190E+02 -9.5525E+01 -8.9311E+01 -8.3358E+01 -7.7778E+01 -7.2676E+01 -6.8134E+01 -6.4203E+01 -6.0894E+01 -5.8179E+01 -5.6002E+01 -5.4288E+01 -5.2962E+01 -5.1948E+01 -5.1187E+01 -5.0630E+01 -5.0240E+01 -4.9989E+01 -4.9858E+01 -4.9828E+01 -4.9888E+01 -5.0027E+01 -5.0234E+01 -5.0503E+01 -5.0827E+01 -5.1201E+01 -5.1621E+01 -5.2083E+01 -5.2585E+01 -5.3124E+01 -5.3697E+01 -5.4304E+01 -5.4942E+01 -5.5610E+01 -5.6306E+01 -5.7029E+01 -5.7777E+01 -5.8548E+01 -5.9340E+01 -6.0150E+01 -6.0975E+01 -6.1813E+01 -6.2668E+01 -6.3627E+01 -6.4893E+01 -6.6788E+01 -6.9673E+01 -7.3926E+01 -7.9768E+01 -8.7212E+01 -9.5965E+01 -1.0556E+02 -1.1537E+02 -1.2481E+02 -1.3337E+02 -1.4077E+02 -1.4697E+02 -1.5211E+02 -1.5644E+02 -1.6017E+02 -1.6353E+02 -1.6657E+02 -1.6962E+02 -1.7226E+02 -1.7441E+02
-2.1335E+02 -2.1353E+02 -2.1369E+02 -2.1381E+02 -2.1394E+02 -2.1403E+02 -2.1410E+02 -2.1413E+02 -2.1414E+02 -2.1413E+02 -2.1410E+02 -2.1404E+02 -2.1398E+02 -2.1390E+02 -2.1382E+02 -2.1373E+02 -2.1365E+02 -2.1355E+02 -2.1346E+02 -2.1337E+02 -2.1327E+02 -2.1317E+02 -2.1307E+02 -2.1297E+02 -2.1286E+02 -2.1275E+02 -2.1264E+02 -2.1253E+02 -2.1241E+02 -2.1229E+02 -2.1216E+02 -2.1203E+02 -2.1190E+02 -2.1176E+02 -2.1162E+02 -2.1148E+02 -2.1132E+02 -2.1116E+02 -2.1099E+02 -2.1081E+02 -2.1061E+02 -2.1041E+02 -2.1021E+02 -2.1000E+02 -2.0980E+02 -2.0960E+02 -2.0941E+02 -2.0924E+02 -2.0908E+02 -2.0896E+02 -2.0886E+02 -2.0880E+02 -2.0878E+02 -2.0879E+02 -2.0883E+02 -2.0889E+02 -2.0897E+02 -2.0907E+02 -2.0916E+02 -2.0927E+02 -2.0940E+02 -2.0955E+02 -2.0974E+02 -2.1000E+02 -2.1033E+02 -2.1074E+02 -2.1123E+02 -2.1180E+02 -2.1244E+02 -2.1314E+02 -2.1387E+02 -2.1463E+02 -2.1541E+02 -2.1617E+02 -2.1690E+02 -2.1755E+02 -2.1808E+02 -2.1845E+02 -2.1860E+02 -2.1851E+02 -2.1817E+02 -2.1757E+02 -2.1676E+02 -2.1577E+02 -2.1464E+02 -2.1341E+02 -2.1213E+02 -2.1082E+02 -2.0949E+02 -2.0815E+02 -2.0678E+02 -2.0536E+02 -2.0387E+02 -2.0224E+02 -2.0045E+02 -1.9843E+02 -1.9614E+02 -1.9354E+02 -1.9061E+02 -1.8732E+02 -1.8370E+02 -1.7975E+02 -1.7550E+02 -1.7098E+02 -1.6621E+02 -1.6120E+02 -1.5595E+02 -1.5046E+02 -1.4474E+02 -1.3879E+02 -1.3265E+02 -1.2633E+02 -1.1989E+02 -1.1337E+02 -1.0681E+02 -1.0028E+02 -9.3862E+01 -8.7631E+01 -8.1693E+01 -7.6153E+01 -7.1111E+01 -6.6645E+01 -6.2799E+01 -5.9581E+01 -5.6957E+01 -5.4869E+01 -5.3240E+01 -5.1990E+01 -5.1046E+01 -5.0346E+01 -4.9842E+01 -4.9499E+01 -4.9289E+01 -4.9192E+01 -4.9193E+01 -4.9280E+01 -4.9442E+01 -4.9671E+01 -4.9959E+01 -5.0301E+01 -5.0693E+01 -5.1129E+01 -5.1608E+01 -5.2125E+01 -5.2679E+01 -5.3268E+01 -5.3889E+01 -5.4542E+01 -5.5224E+01 -5.5935E+01 -5.6672E+01 -5.7434E+01 -5.8219E+01 -5.9024E+01 -5.9847E+01 -6.0684E+01 -6.1534E+01 -6.2396E+01 -6.3362E+01 -6.4638E+01 -6.6558E+01 -6.9501E+01 -7.3866E+01 -7.9889E+01 -8.7594E+01 -9.6677E+01 -1.0665E+02 -1.1685E+02 -1.2666E+02 -1.3551E+02 -1.4310E+02 -1.4936E+02 -1.5445E+02 -1.5861E+02 -1.6211E+02 -1.6517E+02 -1.6790E+02 -1.7062E+02 -1.7293E+02 -1.7483E+02
-2.1353E+02 -2.1373E+02 -2.1389E+02 -2.1402E+02 -2.1415E+02 -2.1426E+02 -2.1433E+02 -2.1437E+02 -2.1439E+02 -2.1438E+02 -2.1435E+02 -2.1430E+02 -2.1424E+02 -2.1416E+02 -2.1408E+02 -2.1400E+02 -2.1391E+02 -2.1382E+02 -2.1372E+02 -2.1363E+02 -2.1353E+02 -2.1343E+02 -2.1333E+02 -2.1322E+02 -2.1311E+02 -2.1300E+02 -2.1289E+02 -2.1277E+02 -2.1265E+02 -2.1253E+02 -2.1240E+02 -2.1227E+02 -2.1213E+02 -2.1199E+02 -2.1185E+02 -2.1169E+02 -2.1153E+02 -2.1137E+02 -2.1119E+02 -2.1100E+02 -2.1080E+02 -2.1059E+02 -2.1038E+02 -2.1016E+02 -2.0995E+02 -2.0974E+02 -2.0954E+02 -2.0936E+02 -2.0920E+02 -2.0907E+02 -2.0897E+02 -2.0890E+02 -2.0888E+02 -2.0888E+02 -2.0892E+02 -2.0898E+02 -2.0906E+02 -2.0915E+02 -2.0925E+02 -2.0936E+02 -2.0949E+02 -2.0965E+02 -2.0986E+02 -2.1013E+02 -2.1047E+02 -2.1090E+02 -2.1142E+02 -2.1202E+02 -2.1268E+02 -2.1341E+02 -2.1418E+02 -2.1497E+02 -2.1578E+02 -2.1658E+02 -2.1736E+02 -2.1806E+02 -2.1865E+02 -2.1907E+02 -2.1926E+02 -2.1921E+02 -2.1887E+02 -2.1827E+02 -2.1742E+02 -2.1636E+02 -2.1515E+02 -2.1384E+02 -2.1247E+02 -2.1107E+02 -2.0966E+02 -2.0824E+02 -2.0681E+02 -2.0533E+02 -2.0377E+02 -2.0210E+02 -2.0026E+02 -1.9820E+02 -1.9588E+02 -1.9325E+02 -1.9029E+02 -1.8698E+02 -1.8333E+02 -1.7935E+02 -1.7508E+02 -1.7052E+02 -1.6571E+02 -1.6065E+02 -1.5534E+02 -1.4977E+02 -1.4395E+02 -1.3788E+02 -1.3159E+02 -1.2513E+02 -1.1853E+02 -1.1188E+02 -1.0521E+02 -9.8605E+01 -9.2137E+01 -8.5894E+01 -7.9972E+01 -7.4474E+01 -6.9494E+01 -6.5103E+01 -6.1341E+01 -5.8211E+01 -5.5678E+01 -5.3679E+01 -5.2134E+01 -5.0963E+01 -5.0090E+01 -4.9454E+01 -4.9006E+01 -4.8712E+01 -4.8546E+01 -4.8487E+01 -4.8521E+01 -4.8637E+01 -4.8825E+01 -4.9077E+01 -4.9387E+01 -4.9749E+01 -5.0159E+01 -5.0614E+01 -5.1110E+01 -5.1645E+01 -5.2216E+01 -5.2821E+01 -5.3458E+01 -5.4127E+01 -5.4825E+01 -5.5552E+01 -5.6305E+01 -5.7082E+01 -5.7882E+01 -5.8701E+01 -5.9537E+01 -6.0387E+01 -6.1249E+01 -6.2122E+01 -6.3098E+01 -6.4389E+01 -6.6337E+01 -6.9336E+01 -7.3800E+01 -7.9984E+01 -8.7918E+01 -9.7297E+01 -1.0761E+02 -1.1818E+02 -1.2834E+02 -1.3749E+02 -1.4529E+02 -1.5164E+02 -1.5670E+02 -1.6073E+02 -1.6401E+02 -1.6679E+02 -1.6922E+02 -1.7160E+02 -1.7359E+02 -1.7525E+02
-2.1372E+02 -2.1392E+02 -2.1410E+02 -2.1424E+02 -2.1437E+02 -2.1448E+02 -2.1456E+02 -2.1462E+02 -2.1464E+02 -2.1464E+02 -2.1461E+02 -2.1456E+02 -2.1450E+02 -2.1443E+02 -2.1435E+02 -2.1426E+02 -2.1417E+02 -2.1408E+02 -2.1398E+02 -2.1389E+02 -2.1379E+02 -2.1369E+02 -2.1358E+02 -2.1348E+02 -2.1337E+02 -2.1325E+02 -2.1314E+02 -2.1302E+02 -2.1290E+02 -2.1277E+02 -2.1264E+02 -2.1251E+02 -2.1237E+02 -2.1222E+02 -2.1207E+02 -2.1192E+02 -2.1175E+02 -2.1158E+02 -2.1139E+02 -2.1120E+02 -2.1099E+02 -2.1078E+02 -2.1056E+02 -2.1034E+02 -2.1011E+02 -2.0990E+02 -2.0969E+02 -2.0950E+02 -2.0933E+02 -2.0919E+02 -2.0909E+02 -2.0902E+02 -2.0898E+02 -2.0899E+02 -2.0902E+02 -2.0908E+02 -2.0915E+02 -2.0924E+02 -2.0934E+02 -2.0945E+02 -2.0959E+02 -2.0975E+02 -2.0997E+02 -2.1025E+02 -2.1061E+02 -2.1106E+02 -2.1159E+02 -2.1221E+02 -2.1291E+02 -2.1366E+02 -2.1445E+02 -2.1528E+02 -2.1612E+02 -2.1696E+02 -2.1778E+02 -2.1853E+02 -2.1916E+02 -2.1963E+02 -2.1986E+02 -2.1983E+02 -2.1950E+02 -2.1889E+02 -2.1800E+02 -2.1689E+02 -2.1561E+02 -2.1422E+02 -2.1277E+02 -2.1129E+02 -2.0981E+02 -2.0833E+02 -2.0683E+02 -2.0530E+02 -2.0369E+02 -2.0197E+02 -2.0009E+02 -1.9800E+02 -1.9563E+02 -1.9297E+02 -1.8997E+02 -1.8663E+02 -1.8294E+02 -1.7893E+02 -1.7462E+02 -1.7003E+02 -1.6518E+02 -1.6007E+02 -1.5469E+02 -1.4904E+02 -1.4312E+02 -1.3693E+02 -1.3050E+02 -1.2389E+02 -1.1715E+02 -1.1036E+02 -1.0359E+02 -9.6899E+01 -9.0383E+01 -8.4124E+01 -7.8215E+01 -7.2755E+01 -6.7831E+01 -6.3510E+01 -5.9830E+01 -5.6786E+01 -5.4342E+01 -5.2431E+01 -5.0972E+01 -4.9881E+01 -4.9081E+01 -4.8511E+01 -4.8123E+01 -4.7882E+01 -4.7762E+01 -4.7743E+01 -4.7813E+01 -4.7960E+01 -4.8176E+01 -4.8453E+01 -4.8786E+01 -4.9170E+01 -4.9602E+01 -5.0076E+01 -5.0592E+01 -5.1145E+01 -5.1735E+01 -5.2358E+01 -5.3013E+01 -5.3699E+01 -5.4415E+01 -5.5158E+01 -5.5928E+01 -5.6721E+01 -5.7536E+01 -5.8370E+01 -5.9220E+01 -6.0084E+01 -6.0958E+01 -6.1844E+01 -6.2833E+01 -6.4139E+01 -6.6112E+01 -6.9157E+01 -7.3702E+01 -8.0015E+01 -8.8137E+01 -9.7767E+01 -1.0839E+02 -1.1929E+02 -1.2979E+02 -1.3924E+02 -1.4726E+02 -1.5374E+02 -1.5882E+02 -1.6275E+02 -1.6584E+02 -1.6838E+02 -1.7053E+02 -1.7259E+02 -1.7428E+02 -1.7570E+02
-2.1391E+02 -2.1412E+02 -2.1430E+02 -2.1445E+02 -2.1459E+02 -2.1471E+02 -2.1480E+02 -2.1486E+02 -2.1489E+02 -2.1489E+02 -2.1487E+02 -2.1482E+02 -2.1476E+02 -2.1469E+02 -2.1461E+02 -2.1453E+02 -2.1444E+02 -2.1434E+02 -2.1425E+02 -2.1415E+02 -2.1405E+02 -2.1395E+02 -2.1384E+02 -2.1373E+02 -2.1362E+02 -2.1351E+02 -2.1339E+02 -2.1327E+02 -2.1314E+02 -2.1301E+02 -2.1288E+02 -2.1274E+02 -2.1260E+02 -2.1245E+02 -2.1230E+02 -2.1214E+02 -2.1197E+02 -2.1179E+02 -2.1161E+02 -2.1141E+02 -2.1120E+02 -2.1098E+02 -2.1075E+02 -2.1052E+02 -2.1029E+02 -2.1006E+02 -2.0985E+02 -2.0965E+02 -2.0947E+02 -2.0933E+02 -2.0921E+02 -2.0913E+02 -2.0909E+02 -2.0909E+02 -2.0912E+02 -2.0917E+02 -2.0924E+02 -2.0932E+02 -2.0942E+02 -2.0953E+02 -2.0967E+02 -2.0984E+02 -2.1006E+02 -2.1035E+02 -2.1072E+02 -2.1119E+02 -2.1174E+02 -2.1239E+02 -2.1310E+02 -2.1388E+02 -2.1470E+02 -2.1556E+02 -2.1643E+02 -2.1730E+02 -2.1815E+02 -2.1894E+02 -2.1961E+02 -2.2011E+02 -2.2038E+02 -2.2037E+02 -2.2004E+02 -2.1941E+02 -2.1849E+02 -2.1733E+02 -2.1599E+02 -2.1454E+02 -2.1302E+02 -2.1148E+02 -2.0993E+02 -2.0840E+02 -2.0685E+02 -2.0527E+02 -2.0363E+02 -2.0187E+02 -1.9995E+02 -1.9781E+02 -1.9541E+02 -1.9271E+02 -1.8967E+02 -1.8629E+02 -1.8256E+02 -1.7851E+02 -1.7417E+02 -1.6954E+02 -1.6465E+02 -1.5949E+02 -1.5405E+02 -1.4832E+02 -1.4230E+02 -1.3600E+02 -1.2944E+02 -1.2269E+02 -1.1581E+02 -1.0889E+02 -1.0200E+02 -9.5224E+01 -8.8648E+01 -8.2360E+01 -7.6451E+01 -7.1016E+01 -6.6137E+01 -6.1877E+01 -5.8270E+01 -5.5308E+01 -5.2951E+01 -5.1128E+01 -4.9755E+01 -4.8746E+01 -4.8022E+01 -4.7521E+01 -4.7195E+01 -4.7009E+01 -4.6938E+01 -4.6962E+01 -4.7070E+01 -4.7251E+01 -4.7496E+01 -4.7801E+01 -4.8159E+01 -4.8567E+01 -4.9020E+01 -4.9517E+01 -5.0053E+01 -5.0627E+01 -5.1237E+01 -5.1880E+01 -5.2555E+01 -5.3260E+01 -5.3994E+01 -5.4755E+01 -5.5542E+01 -5.6352E+01 -5.7182E+01 -5.8031E+01 -5.8896E+01 -5.9773E+01 -6.0662E+01 -6.1561E+01 -6.2563E+01 -6.3884E+01 -6.5876E+01 -6.8952E+01 -7.3551E+01 -7.9955E+01 -8.8219E+01 -9.8050E+01 -1.0893E+02 -1.2014E+02 -1.3095E+02 -1.4069E+02 -1.4896E+02 -1.5559E+02 -1.6073E+02 -1.6461E+02 -1.6757E+02 -1.6989E+02 -1.7180E+02 -1.7358E+02 -1.7498E+02 -1.7618E+02
-2.1410E+02 -2.1431E+02 -2.1450E+02 -2.1466E+02 -2.1481E+02 -2.1493E+02 -2.1503E+02 -2.1510E+02 -2.1513E+02 -2.1514E+02 -2.1512E+02 -2.1508E+02 -2.1503E+02 -2.1496E+02 -2.1488E+02 -2.1479E+02 -2.1470E+02 -2.1461E+02 -2.1451E+02 -2.1441E+02 -2.1431E+02 -2.1420E+02 -2.1410E+02 -2.1399E+02 -2.1387E+02 -2.1376E+02 -2.1364E+02 -2.1351E+02 -2.1339E+02 -2.1326E+02 -2.1312E+02 -2.1298E+02 -2.1284E+02 -2.1269E+02 -2.1253E+02 -2.1237E+02 -2.1220E+02 -2.1201E+02 -2.1182E+02 -2.1162E+02 -2.1140E+02 -2.1118E+02 -2.1095E+02 -2.1071E+02 -2.1047E+02 -2.1023E+02 -2.1001E+02 -2.0980E+02 -2.0961E+02 -2.0945E+02 -2.0933E+02 -2.0925E+02 -2.0920E+02 -2.0919E+02 -2.0921E+02 -2.0925E+02 -2.0932E+02 -2.0940E+02 -2.0949E+02 -2.0960E+02 -2.0973E+02 -2.0990E+02 -2.1013E+02 -2.1043E+02 -2.1081E+02 -2.1129E+02 -2.1186E+02 -2.1253E+02 -2.1327E+02 -2.1407E+02 -2.1492E+02 -2.1580E+02 -2.1670E+02 -2.1760E+02 -2.1848E+02 -2.1930E+02 -2.2000E+02 -2.2053E+02 -2.2081E+02 -2.2081E+02 -2.2048E+02 -2.1983E+02 -2.1888E+02 -2.1768E+02 -2.1630E+02 -2.1479E+02 -2.1322E+02 -2.1162E+02 -2.1004E+02 -2.0846E+02 -2.0687E+02 -2.0526E+02 -2.0359E+02 -2.0179E+02 -1.9984E+02 -1.9767E+02 -1.9523E+02 -1.9249E+02 -1.8941E+02 -1.8599E+02 -1.8222E+02 -1.7814E+02 -1.7375E+02 -1.6908E+02 -1.6414E+02 -1.5894E+02 -1.5344E+02 -1.4764E+02 -1.4154E+02 -1.3513E+02 -1.2846E+02 -1.2158E+02 -1.1457E+02 -1.0751E+02 -1.0051E+02 -9.3633E+01 -8.6983E+01 -8.0646E+01 -7.4716E+01 -6.9285E+01 -6.4433E+01 -6.0220E+01 -5.6674E+01 -5.3786E+01 -5.1510E+01 -4.9774E+01 -4.8487E+01 -4.7561E+01 -4.6915E+01 -4.6486E+01 -4.6225E+01 -4.6096E+01 -4.6076E+01 -4.6146E+01 -4.6293E+01 -4.6510E+01 -4.6787E+01 -4.7121E+01 -4.7506E+01 -4.7939E+01 -4.8417E+01 -4.8937E+01 -4.9496E+01 -5.0093E+01 -5.0724E+01 -5.1388E+01 -5.2084E+01 -5.2809E+01 -5.3562E+01 -5.4342E+01 -5.5147E+01 -5.5974E+01 -5.6821E+01 -5.7686E+01 -5.8565E+01 -5.9456E+01 -6.0358E+01 -6.1271E+01 -6.2287E+01 -6.3619E+01 -6.5621E+01 -6.8712E+01 -7.3338E+01 -7.9796E+01 -8.8155E+01 -9.8137E+01 -1.0922E+02 -1.2069E+02 -1.3179E+02 -1.4182E+02 -1.5034E+02 -1.5716E+02 -1.6239E+02 -1.6627E+02 -1.6913E+02 -1.7130E+02 -1.7299E+02 -1.7454E+02 -1.7568E+02 -1.7664E+02
-2.1428E+02 -2.1451E+02 -2.1470E+02 -2.1487E+02 -2.1503E+02 -2.1516E+02 -2.1526E+02 -2.1533E+02 -2.1538E+02 -2.1539E+02 -2.1538E+02 -2.1535E+02 -2.1529E+02 -2.1522E+02 -2.1514E+02 -2.1506E+02 -2.1497E+02 -2.1487E+02 -2.1477E+02 -2.1467E+02 -2.1457E+02 -2.1446E+02 -2.1436E+02 -2.1424E+02 -2.1413E+02 -2.1401E+02 -2.1389E+02 -2.1376E+02 -2.1363E+02 -2.1350E+02 -2.1336E+02 -2.1322E+02 -2.1307E+02 -2.1292E+02 -2.1276E+02 -2.1260E+02 -2.1242E+02 -2.1224E+02 -2.1204E+02 -2.1183E+02 -2.1161E+02 -2.1138E+02 -2.1114E+02 -2.1090E+02 -2.1065E+02 -2.1040E+02 -2.1017E+02 -2.0994E+02 -2.0975E+02 -2.0958E+02 -2.0945E+02 -2.0935E+02 -2.0930E+02 -2.0928E+02 -2.0929E+02 -2.0932E+02 -2.0938E+02 -2.0946E+02 -2.0954E+02 -2.0965E+02 -2.0978E+02 -2.0995E+02 -2.1018E+02 -2.1048E+02 -2.1087E+02 -2.1136E+02 -2.1196E+02 -2.1264E+02 -2.1341E+02 -2.1423E+02 -2.1511E+02 -2.1601E+02 -2.1693E+02 -2.1786E+02 -2.1876E+02 -2.1960E+02 -2.2032E+02 -2.2086E+02 -2.2116E+02 -2.2115E+02 -2.2082E+02 -2.2015E+02 -2.1917E+02 -2.1794E+02 -2.1651E+02 -2.1497E+02 -2.1336E+02 -2.1173E+02 -2.1011E+02 -2.0851E+02 -2.0690E+02 -2.0527E+02 -2.0357E+02 -2.0175E+02 -1.9977E+02 -1.9757E+02 -1.9510E+02 -1.9232E+02 -1.8920E+02 -1.8574E+02 -1.8194E+02 -1.7781E+02 -1.7339E+02 -1.6868E+02 -1.6370E+02 -1.5844E+02 -1.5290E+02 -1.4704E+02 -1.4086E+02 -1.3437E+02 -1.2759E+02 -1.2060E+02 -1.1347E+02 -1.0629E+02 -9.9160E+01 -9.2177E+01 -8.5434E+01 -7.9026E+01 -7.3050E+01 -6.7597E+01 -6.2748E+01 -5.8560E+01 -5.5060E+01 -5.2233E+01 -5.0031E+01 -4.8376E+01 -4.7173E+01 -4.6331E+01 -4.5765E+01 -4.5409E+01 -4.5215E+01 -4.5146E+01 -4.5178E+01 -4.5295E+01 -4.5485E+01 -4.5739E+01 -4.6050E+01 -4.6415E+01 -4.6829E+01 -4.7289E+01 -4.7793E+01 -4.8338E+01 -4.8922E+01 -4.9542E+01 -5.0197E+01 -5.0884E+01 -5.1601E+01 -5.2348E+01 -5.3122E+01 -5.3921E+01 -5.4745E+01 -5.5589E+01 -5.6453E+01 -5.7333E+01 -5.8227E+01 -5.9133E+01 -6.0048E+01 -6.0975E+01 -6.2003E+01 -6.3344E+01 -6.5349E+01 -6.8439E+01 -7.3069E+01 -7.9546E+01 -8.7956E+01 -9.8037E+01 -1.0928E+02 -1.2096E+02 -1.3231E+02 -1.4260E+02 -1.5137E+02 -1.5839E+02 -1.6374E+02 -1.6766E+02 -1.7048E+02 -1.7252E+02 -1.7405E+02 -1.7540E+02 -1.7631E+02 -1.7704E+02
-2.1447E+02 -2.1470E+02 -2.1491E+02 -2.1508E+02 -2.1524E+02 -2.1538E+02 -2.1549E+02 -2.1557E+02 -2.1562E+02 -2.1564E+02 -2.1564E+02 -2.1561E+02 -2.1556E+02 -2.1549E+02 -2.1541E+02 -2.1533E+02 -2.1523E+02 -2.1514E+02 -2.1504E+02 -2.1494E+02 -2.1483E+02 -2.1473E+02 -2.1462E+02 -2.1450E+02 -2.1438E+02 -2.1426E+02 -2.1414E+02 -2.1401E+02 -2.1388E+02 -2.1375E+02 -2.1361E+02 -2.1346E+02 -2.1331E+02 -2.1316E+02 -2.1299E+02 -2.1282E+02 -2.1265E+02 -2.1246E+02 -2.1226E+02 -2.1205E+02 -2.1183E+02 -2.1159E+02 -2.1135E+02 -2.1109E+02 -2.1083E+02 -2.1057E+02 -2.1032E+02 -2.1009E+02 -2.0988E+02 -2.0970E+02 -2.0955E+02 -2.0944E+02 -2.0938E+02 -2.0935E+02 -2.0935E+02 -2.0938E+02 -2.0943E+02 -2.0950E+02 -2.0958E+02 -2.0968E+02 -2.0980E+02 -2.0997E+02 -2.1020E+02 -2.1050E+02 -2.1091E+02 -2.1141E+02 -2.1202E+02 -2.1272E+02 -2.1351E+02 -2.1436E+02 -2.1526E+02 -2.1619E+02 -2.1713E+02 -2.1808E+02 -2.1900E+02 -2.1985E+02 -2.2058E+02 -2.2113E+02 -2.2142E+02 -2.2141E+02 -2.2106E+02 -2.2037E+02 -2.1937E+02 -2.1811E+02 -2.1666E+02 -2.1509E+02 -2.1346E+02 -2.1181E+02 -2.1018E+02 -2.0856E+02 -2.0694E+02 -2.0529E+02 -2.0357E+02 -2.0174E+02 -1.9974E+02 -1.9751E+02 -1.9501E+02 -1.9220E+02 -1.8905E+02 -1.8556E+02 -1.8172E+02 -1.7755E+02 -1.7309E+02 -1.6834E+02 -1.6333E+02 -1.5803E+02 -1.5244E+02 -1.4653E+02 -1.4029E+02 -1.3372E+02 -1.2686E+02 -1.1977E+02 -1.1253E+02 -1.0523E+02 -9.7984E+01 -9.0885E+01 -8.4035E+01 -7.7536E+01 -7.1488E+01 -6.5986E+01 -6.1113E+01 -5.6926E+01 -5.3449E+01 -5.0668E+01 -4.8528E+01 -4.6946E+01 -4.5824E+01 -4.5064E+01 -4.4577E+01 -4.4296E+01 -4.4169E+01 -4.4161E+01 -4.4248E+01 -4.4414E+01 -4.4647E+01 -4.4940E+01 -4.5287E+01 -4.5685E+01 -4.6129E+01 -4.6619E+01 -4.7151E+01 -4.7723E+01 -4.8333E+01 -4.8978E+01 -4.9657E+01 -5.0368E+01 -5.1109E+01 -5.1878E+01 -5.2673E+01 -5.3492E+01 -5.4334E+01 -5.5196E+01 -5.6077E+01 -5.6972E+01 -5.7881E+01 -5.8802E+01 -5.9731E+01 -6.0672E+01 -6.1712E+01 -6.3059E+01 -6.5060E+01 -6.8137E+01 -7.2747E+01 -7.9211E+01 -8.7629E+01 -9.7759E+01 -1.0910E+02 -1.2094E+02 -1.3249E+02 -1.4302E+02 -1.5201E+02 -1.5923E+02 -1.6472E+02 -1.6871E+02 -1.7153E+02 -1.7351E+02 -1.7490E+02 -1.7612E+02 -1.7684E+02 -1.7735E+02
-2.1466E+02 -2.1490E+02 -2.1511E+02 -2.1529E+02 -2.1546E+02 -2.1561E+02 -2.1573E+02 -2.1581E+02 -2.1587E+02 -2.1590E+02 -2.1590E+02 -2.1587E+02 -2.1582E+02 -2.1576E+02 -2.1568E+02 -2.1559E+02 -2.1550E+02 -2.1540E+02 -2.1530E+02 -2.1520E+02 -2.1510E+02 -2.1499E+02 -2.1487E+02 -2.1476E+02 -2.1464E+02 -2.1452E+02 -2.1439E+02 -2.1426E+02 -2.1413E+02 -2.1399E+02 -2.1385E+02 -2.1370E+02 -2.1355E+02 -2.1339E+02 -2.1323E+02 -2.1306E+02 -2.1288E+02 -2.1269E+02 -2.1248E+02 -2.1227E+02 -2.1204E+02 -2.1180E+02 -2.1155E+02 -2.1129E+02 -2.1102E+02 -2.1075E+02 -2.1049E+02 -2.1024E+02 -2.1001E+02 -2.0981E+02 -2.0965E+02 -2.0953E+02 -2.0944E+02 -2.0940E+02 -2.0939E+02 -2.0941E+02 -2.0946E+02 -2.0952E+02 -2.0959E+02 -2.0968E+02 -2.0980E+02 -2.0997E+02 -2.1020E+02 -2.1051E+02 -2.1092E+02 -2.1143E+02 -2.1206E+02 -2.1278E+02 -2.1359E+02 -2.1447E+02 -2.1539E+02 -2.1634E+02 -2.1730E+02 -2.1827E+02 -2.1920E+02 -2.2006E+02 -2.2079E+02 -2.2133E+02 -2.2161E+02 -2.2158E+02 -2.2121E+02 -2.2050E+02 -2.1948E+02 -2.1820E+02 -2.1673E+02 -2.1515E+02 -2.1351E+02 -2.1186E+02 -2.1022E+02 -2.0860E+02 -2.0698E+02 -2.0532E+02 -2.0360E+02 -2.0176E+02 -1.9974E+02 -1.9750E+02 -1.9498E+02 -1.9214E+02 -1.8896E+02 -1.8543E+02 -1.8156E+02 -1.7736E+02 -1.7286E+02 -1.6808E+02 -1.6302E+02 -1.5769E+02 -1.5205E+02 -1.4610E+02 -1.3981E+02 -1.3318E+02 -1.2626E+02 -1.1908E+02 -1.1175E+02 -1.0435E+02 -9.6987E+01 -8.9771E+01 -8.2807E+01 -7.6202E+01 -7.0061E+01 -6.4486E+01 -5.9561E+01 -5.5348E+01 -5.1871E+01 -4.9114E+01 -4.7019E+01 -4.5499E+01 -4.4450E+01 -4.3768E+01 -4.3360E+01 -4.3152E+01 -4.3094E+01 -4.3147E+01 -4.3290E+01 -4.3505E+01 -4.3783E+01 -4.4116E+01 -4.4500E+01 -4.4933E+01 -4.5410E+01 -4.5930E+01 -4.6492E+01 -4.7092E+01 -4.7730E+01 -4.8402E+01 -4.9107E+01 -4.9842E+01 -5.0607E+01 -5.1398E+01 -5.2215E+01 -5.3055E+01 -5.3916E+01 -5.4796E+01 -5.5692E+01 -5.6604E+01 -5.7528E+01 -5.8463E+01 -5.9407E+01 -6.0363E+01 -6.1414E+01 -6.2764E+01 -6.4756E+01 -6.7808E+01 -7.2378E+01 -7.8798E+01 -8.7182E+01 -9.7307E+01 -1.0869E+02 -1.2062E+02 -1.3231E+02 -1.4302E+02 -1.5221E+02 -1.5962E+02 -1.6527E+02 -1.6937E+02 -1.7223E+02 -1.7419E+02 -1.7552E+02 -1.7665E+02 -1.7722E+02 -1.7754E+02
-2.1485E+02 -2.1509E+02 -2.1531E+02 -2.1550E+02 -2.1568E+02 -2.1583E+02 -2.1596E+02 -2.1605E+02 -2.1612E+02 -2.1615E+02 -2.1615E+02 -2.1613E+02 -2.1609E+02 -2.1602E+02 -2.1595E+02 -2.1586E+02 -2.1577E+02 -2.1567E+02 -2.1557E+02 -2.1547E+02 -2.1536E+02 -2.1525E+02 -2.1514E+02 -2.1502E+02 -2.1490E+02 -2.1477E+02 -2.1465E+02 -2.1452E+02 -2.1438E+02 -2.1424E+02 -2.1410E+02 -2.1395E+02 -2.1379E+02 -2.1363E+02 -2.1346E+02 -2.1329E+02 -2.1311E+02 -2.1291E+02 -2.1271E+02 -2.1249E+02 -2.1226E+02 -2.1202E+02 -2.1176E+02 -2.1149E+02 -2.1121E+02 -2.1093E+02 -2.1065E+02 -2.1038E+02 -2.1014E+02 -2.0992E+02 -2.0974E+02 -2.0960E+02 -2.0950E+02 -2.0945E+02 -2.0942E+02 -2.0943E+02 -2.0947E+02 -2.0952E+02 -2.0959E+02 -2.0967E+02 -2.0979E+02 -2.0995E+02 -2.1018E+02 -2.1049E+02 -2.1091E+02 -2.1143E+02 -2.1207E+02 -2.1282E+02 -2.1365E+02 -2.1455E+02 -2.1549E+02 -2.1646E+02 -2.1745E+02 -2.1843E+02 -2.1937E+02 -2.2023E+02 -2.2096E+02 -2.2149E+02 -2.2175E+02 -2.2170E+02 -2.2130E+02 -2.2057E+02 -2.1953E+02 -2.1823E+02 -2.1676E+02 -2.1517E+02 -2.1354E+02 -2.1189E+02 -2.1026E+02 -2.0864E+02 -2.0702E+02 -2.0537E+02 -2.0365E+02 -2.0181E+02 -1.9978E+02 -1.9753E+02 -1.9498E+02 -1.9212E+02 -1.8891E+02 -1.8535E+02 -1.8145E+02 -1.7722E+02 -1.7269E+02 -1.6788E+02 -1.6279E+02 -1.5742E+02 -1.5175E+02 -1.4575E+02 -1.3942E+02 -1.3275E+02 -1.2576E+02 -1.1852E+02 -1.1111E+02 -1.0362E+02 -9.6158E+01 -8.8834E+01 -8.1756E+01 -7.5038E+01 -6.8792E+01 -6.3123E+01 -5.8123E+01 -5.3856E+01 -5.0352E+01 -4.7594E+01 -4.5525E+01 -4.4052E+01 -4.3066E+01 -4.2455E+01 -4.2120E+01 -4.1986E+01 -4.1994E+01 -4.2109E+01 -4.2307E+01 -4.2572E+01 -4.2895E+01 -4.3270E+01 -4.3693E+01 -4.4162E+01 -4.4673E+01 -4.5226E+01 -4.5818E+01 -4.6448E+01 -4.7114E+01 -4.7814E+01 -4.8545E+01 -4.9307E+01 -5.0096E+01 -5.0910E+01 -5.1748E+01 -5.2608E+01 -5.3488E+01 -5.4386E+01 -5.5299E+01 -5.6227E+01 -5.7166E+01 -5.8116E+01 -5.9075E+01 -6.0045E+01 -6.1108E+01 -6.2461E+01 -6.4439E+01 -6.7455E+01 -7.1968E+01 -7.8314E+01 -8.6620E+01 -9.6683E+01 -1.0804E+02 -1.1999E+02 -1.3176E+02 -1.4259E+02 -1.5195E+02 -1.5953E+02 -1.6535E+02 -1.6958E+02 -1.7254E+02 -1.7454E+02 -1.7585E+02 -1.7697E+02 -1.7747E+02 -1.7764E+02
-2.1504E+02 -2.1529E+02 -2.1552E+02 -2.1571E+02 -2.1590E+02 -2.1606E+02 -2.1619E+02 -2.1629E+02 -2.1636E+02 -2.1640E+02 -2.1641E+02 -2.1639E+02 -2.1635E+02 -2.1629E+02 -2.1622E+02 -2.1613E+02 -2.1604E+02 -2.1594E+02 -2.1584E+02 -2.1573E+02 -2.1562E+02 -2.1551E+02 -2.1540E+02 -2.1528E+02 -2.1516E+02 -2.1503E+02 -2.1490E+02 -2.1477E+02 -2.1463E+02 -2.1449E+02 -2.1434E+02 -2.1419E+02 -2.1404E+02 -2.1387E+02 -2.1370E+02 -2.1353E+02 -2.1334E+02 -2.1314E+02 -2.1294E+02 -2.1272E+02 -2.1248E+02 -2.1224E+02 -2.1197E+02 -2.1170E+02 -2.1141E+02 -2.1111E+02 -2.1082E+02 -2.1054E+02 -2.1027E+02 -2.1004E+02 -2.0983E+02 -2.0967E+02 -2.0956E+02 -2.0948E+02 -2.0944E+02 -2.0944E+02 -2.0946E+02 -2.0950E+02 -2.0956E+02 -2.0964E+02 -2.0976E+02 -2.0992E+02 -2.1014E+02 -2.1046E+02 -2.1088E+02 -2.1142E+02 -2.1208E+02 -2.1284E+02 -2.1369E+02 -2.1461E+02 -2.1558E+02 -2.1657E+02 -2.1757E+02 -2.1856E+02 -2.1951E+02 -2.2037E+02 -2.2109E+02 -2.2160E+02 -2.2185E+02 -2.2177E+02 -2.2135E+02 -2.2059E+02 -2.1953E+02 -2.1822E+02 -2.1675E+02 -2.1516E+02 -2.1353E+02 -2.1190E+02 -2.1028E+02 -2.0867E+02 -2.0707E+02 -2.0543E+02 -2.0372E+02 -2.0187E+02 -1.9985E+02 -1.9758E+02 -1.9502E+02 -1.9214E+02 -1.8890E+02 -1.8531E+02 -1.8138E+02 -1.7713E+02 -1.7257E+02 -1.6773E+02 -1.6261E+02 -1.5720E+02 -1.5150E+02 -1.4547E+02 -1.3910E+02 -1.3239E+02 -1.2536E+02 -1.1807E+02 -1.1059E+02 -1.0303E+02 -9.5481E+01 -8.8063E+01 -8.0882E+01 -7.4054E+01 -6.7696E+01 -6.1920E+01 -5.6823E+01 -5.2479E+01 -4.8920E+01 -4.6136E+01 -4.4068E+01 -4.2623E+01 -4.1685E+01 -4.1135E+01 -4.0869E+01 -4.0803E+01 -4.0877E+01 -4.1052E+01 -4.1304E+01 -4.1619E+01 -4.1988E+01 -4.2406E+01 -4.2868E+01 -4.3374E+01 -4.3921E+01 -4.4507E+01 -4.5132E+01 -4.5793E+01 -4.6488E+01 -4.7216E+01 -4.7975E+01 -4.8761E+01 -4.9575E+01 -5.0412E+01 -5.1272E+01 -5.2152E+01 -5.3051E+01 -5.3967E+01 -5.4897E+01 -5.5840E+01 -5.6795E+01 -5.7760E+01 -5.8734E+01 -5.9720E+01 -6.0795E+01 -6.2151E+01 -6.4113E+01 -6.7088E+01 -7.1528E+01 -7.7773E+01 -8.5960E+01 -9.5904E+01 -1.0716E+02 -1.1906E+02 -1.3083E+02 -1.4172E+02 -1.5120E+02 -1.5894E+02 -1.6493E+02 -1.6933E+02 -1.7243E+02 -1.7454E+02 -1.7592E+02 -1.7710E+02 -1.7760E+02 -1.7768E+02
-2.1523E+02 -2.1549E+02 -2.1572E+02 -2.1592E+02 -2.1611E+02 -2.1628E+02 -2.1642E+02 -2.1653E+02 -2.1661E+02 -2.1666E+02 -2.1667E+02 -2.1666E+02 -2.1662E+02 -2.1656E+02 -2.1649E+02 -2.1640E+02 -2.1631E+02 -2.1621E+02 -2.1611E+02 -2.1600E+02 -2.1589E+02 -2.1578E+02 -2.1566E+02 -2.1554E+02 -2.1542E+02 -2.1529E+02 -2.1516E+02 -2.1503E+02 -2.1489E+02 -2.1474E+02 -2.1460E+02 -2.1444E+02 -2.1428E+02 -2.1412E+02 -2.1394E+02 -2.1376E+02 -2.1358E+02 -2.1338E+02 -2.1317E+02 -2.1295E+02 -2.1271E+02 -2.1246E+02 -2.1219E+02 -2.1191E+02 -2.1161E+02 -2.1131E+02 -2.1100E+02 -2.1070E+02 -2.1042E+02 -2.1016E+02 -2.0994E+02 -2.0975E+02 -2.0961E+02 -2.0951E+02 -2.0945E+02 -2.0943E+02 -2.0944E+02 -2.0947E+02 -2.0952E+02 -2.0960E+02 -2.0971E+02 -2.0987E+02 -2.1009E+02 -2.1042E+02 -2.1085E+02 -2.1140E+02 -2.1207E+02 -2.1285E+02 -2.1373E+02 -2.1467E+02 -2.1566E+02 -2.1667E+02 -2.1769E+02 -2.1869E+02 -2.1964E+02 -2.2050E+02 -2.2120E+02 -2.2169E+02 -2.2191E+02 -2.2180E+02 -2.2135E+02 -2.2057E+02 -2.1949E+02 -2.1818E+02 -2.1670E+02 -2.1512E+02 -2.1351E+02 -2.1188E+02 -2.1028E+02 -2.0870E+02 -2.0711E+02 -2.0548E+02 -2.0378E+02 -2.0195E+02 -1.9992E+02 -1.9764E+02 -1.9507E+02 -1.9216E+02 -1.8891E+02 -1.8529E+02 -1.8133E+02 -1.7705E+02 -1.7247E+02 -1.6761E+02 -1.6246E+02 -1.5703E+02 -1.5130E+02 -1.4525E+02 -1.3884E+02 -1.3210E+02 -1.2503E+02 -1.1769E+02 -1.1017E+02 -1.0255E+02 -9.4942E+01 -8.7448E+01 -8.0179E+01 -7.3252E+01 -6.6784E+01 -6.0893E+01 -5.5684E+01 -5.1238E+01 -4.7597E+01 -4.4759E+01 -4.2667E+01 -4.1228E+01 -4.0320E+01 -3.9820E+01 -3.9614E+01 -3.9611E+01 -3.9747E+01 -3.9981E+01 -4.0287E+01 -4.0651E+01 -4.1066E+01 -4.1526E+01 -4.2029E+01 -4.2573E+01 -4.3156E+01 -4.3777E+01 -4.4434E+01 -4.5126E+01 -4.5852E+01 -4.6608E+01 -4.7393E+01 -4.8206E+01 -4.9043E+01 -4.9903E+01 -5.0785E+01 -5.1685E+01 -5.2603E+01 -5.3536E+01 -5.4483E+01 -5.5443E+01 -5.6413E+01 -5.7394E+01 -5.8384E+01 -5.9386E+01 -6.0475E+01 -6.1835E+01 -6.3783E+01 -6.6714E+01 -7.1071E+01 -7.7192E+01 -8.5220E+01 -9.4990E+01 -1.0608E+02 -1.1784E+02 -1.2954E+02 -1.4043E+02 -1.4997E+02 -1.5785E+02 -1.6403E+02 -1.6864E+02 -1.7193E+02 -1.7423E+02 -1.7574E+02 -1.7707E+02 -1.7764E+02 -1.7772E+02
-2.1542E+02 -2.1569E+02 -2.1593E+02 -2.1613E+02 -2.1633E+02 -2.1651E+02 -2.1666E+02 -2.1677E+02 -2.1686E+02 -2.1691E+02 -2.1693E+02 -2.1692E+02 -2.1688E+02 -2.1683E+02 -2.1676E+02 -2.1667E+02 -2.1658E+02 -2.1648E+02 -2.1637E+02 -2.1627E+02 -2.1616E+02 -2.1604E+02 -2.1592E+02 -2.1580E+02 -2.1568E+02 -2.1555E+02 -2.1542E+02 -2.1528E+02 -2.1514E+02 -2.1500E+02 -2.1485E+02 -2.1469E+02 -2.1453E+02 -2.1436E+02 -2.1419E+02 -2.1401E+02 -2.1382E+02 -2.1362E+02 -2.1341E+02 -2.1318E+02 -2.1294E+02 -2.1269E+02 -2.1242E+02 -2.1213E+02 -2.1183E+02 -2.1152E+02 -2.1120E+02 -2.1088E+02 -2.1058E+02 -2.1030E+02 -2.1005E+02 -2.0983E+02 -2.0967E+02 -2.0954E+02 -2.0946E+02 -2.0942E+02 -2.0941E+02 -2.0943E+02 -2.0947E+02 -2.0954E+02 -2.0965E+02 -2.0980E+02 -2.1003E+02 -2.1036E+02 -2.1080E+02 -2.1137E+02 -2.1205E+02 -2.1286E+02 -2.1375E+02 -2.1472E+02 -2.1572E+02 -2.1676E+02 -2.1779E+02 -2.1880E+02 -2.1975E+02 -2.2061E+02 -2.2130E+02 -2.2176E+02 -2.2194E+02 -2.2180E+02 -2.2132E+02 -2.2051E+02 -2.1942E+02 -2.1809E+02 -2.1662E+02 -2.1505E+02 -2.1344E+02 -2.1184E+02 -2.1026E+02 -2.0869E+02 -2.0712E+02 -2.0552E+02 -2.0384E+02 -2.0201E+02 -1.9999E+02 -1.9771E+02 -1.9512E+02 -1.9219E+02 -1.8891E+02 -1.8527E+02 -1.8129E+02 -1.7699E+02 -1.7239E+02 -1.6751E+02 -1.6235E+02 -1.5690E+02 -1.5115E+02 -1.4507E+02 -1.3864E+02 -1.3186E+02 -1.2476E+02 -1.1740E+02 -1.0984E+02 -1.0219E+02 -9.4535E+01 -8.6986E+01 -7.9648E+01 -7.2634E+01 -6.6062E+01 -6.0052E+01 -5.4719E+01 -5.0152E+01 -4.6404E+01 -4.3483E+01 -4.1339E+01 -3.9881E+01 -3.8985E+01 -3.8519E+01 -3.8362E+01 -3.8415E+01 -3.8610E+01 -3.8899E+01 -3.9258E+01 -3.9671E+01 -4.0131E+01 -4.0634E+01 -4.1177E+01 -4.1759E+01 -4.2379E+01 -4.3035E+01 -4.3725E+01 -4.4449E+01 -4.5204E+01 -4.5989E+01 -4.6801E+01 -4.7639E+01 -4.8500E+01 -4.9382E+01 -5.0285E+01 -5.1205E+01 -5.2141E+01 -5.3093E+01 -5.4057E+01 -5.5033E+01 -5.6021E+01 -5.7018E+01 -5.8024E+01 -5.9043E+01 -6.0149E+01 -6.1518E+01 -6.3456E+01 -6.6344E+01 -7.0614E+01 -7.6594E+01 -8.4430E+01 -9.3975E+01 -1.0483E+02 -1.1639E+02 -1.2793E+02 -1.3876E+02 -1.4833E+02 -1.5633E+02 -1.6270E+02 -1.6755E+02 -1.7110E+02 -1.7364E+02 -1.7536E+02 -1.7691E+02 -1.7763E+02 -1.7777E+02
-2.1562E+02 -2.1589E+02 -2.1613E+02 -2.1634E+02 -2.1655E+02 -2.1674E+02 -2.1689E+02 -2.1701E+02 -2.1710E+02 -2.1716E+02 -2.1719E+02 -2.1718E+02 -2.1715E+02 -2.1710E+02 -2.1703E+02 -2.1694E+02 -2.1685E+02 -2.1675E+02 -2.1664E+02 -2.1654E+02 -2.1642E+02 -2.1631E+02 -2.1619E+02 -2.1607E+02 -2.1594E+02 -2.1582E+02 -2.1568E+02 -2.1555E+02 -2.1540E+02 -2.1526E+02 -2.1511E+02 -2.1495E+02 -2.1479E+02 -2.1462E+02 -2.1444E+02 -2.1425E+02 -2.1406E+02 -2.1386E+02 -2.1365E+02 -2.1342E+02 -2.1318E+02 -2.1292E+02 -2.1265E+02 -2.1236E+02 -2.1205E+02 -2.1173E+02 -2.1140E+02 -2.1108E+02 -2.1075E+02 -2.1045E+02 -2.1017E+02 -2.0993E+02 -2.0973E+02 -2.0958E+02 -2.0947E+02 -2.0941E+02 -2.0938E+02 -2.0938E+02 -2.0941E+02 -2.0947E+02 -2.0957E+02 -2.0973E+02 -2.0996E+02 -2.1029E+02 -2.1074E+02 -2.1132E+02 -2.1203E+02 -2.1285E+02 -2.1377E+02 -2.1476E+02 -2.1579E+02 -2.1684E+02 -2.1789E+02 -2.1891E+02 -2.1986E+02 -2.2071E+02 -2.2138E+02 -2.2181E+02 -2.2196E+02 -2.2178E+02 -2.2126E+02 -2.2042E+02 -2.1931E+02 -2.1797E+02 -2.1649E+02 -2.1493E+02 -2.1334E+02 -2.1176E+02 -2.1020E+02 -2.0865E+02 -2.0711E+02 -2.0553E+02 -2.0387E+02 -2.0206E+02 -2.0004E+02 -1.9775E+02 -1.9515E+02 -1.9221E+02 -1.8890E+02 -1.8524E+02 -1.8124E+02 -1.7693E+02 -1.7231E+02 -1.6742E+02 -1.6225E+02 -1.5680E+02 -1.5103E+02 -1.4493E+02 -1.3849E+02 -1.3169E+02 -1.2457E+02 -1.1719E+02 -1.0961E+02 -1.0194E+02 -9.4260E+01 -8.6675E+01 -7.9285E+01 -7.2198E+01 -6.5530E+01 -5.9402E+01 -5.3935E+01 -4.9229E+01 -4.5352E+01 -4.2321E+01 -4.0097E+01 -3.8594E+01 -3.7686E+01 -3.7237E+01 -3.7116E+01 -3.7219E+01 -3.7467E+01 -3.7810E+01 -3.8219E+01 -3.8680E+01 -3.9185E+01 -3.9730E+01 -4.0314E+01 -4.0934E+01 -4.1591E+01 -4.2281E+01 -4.3005E+01 -4.3760E+01 -4.4545E+01 -4.5358E+01 -4.6196E+01 -4.7058E+01 -4.7943E+01 -4.8847E+01 -4.9770E+01 -5.0710E+01 -5.1666E+01 -5.2635E+01 -5.3617E+01 -5.4611E+01 -5.5616E+01 -5.6630E+01 -5.7654E+01 -5.8692E+01 -5.9817E+01 -6.1201E+01 -6.3134E+01 -6.5984E+01 -7.0165E+01 -7.5991E+01 -8.3610E+01 -9.2887E+01 -1.0346E+02 -1.1475E+02 -1.2608E+02 -1.3679E+02 -1.4637E+02 -1.5448E+02 -1.6105E+02 -1.6616E+02 -1.7001E+02 -1.7284E+02 -1.7483E+02 -1.7666E+02 -1.7759E+02 -1.7786E+02
-2.1582E+02 -2.1609E+02 -2.1634E+02 -2.1656E+02 -2.1677E+02 -2.1696E+02 -2.1713E+02 -2.1726E+02 -2.1735E+02 -2.1742E+02 -2.1745E+02 -2.1745E+02 -2.1742E+02 -2.1737E+02 -2.1730E+02 -2.1721E+02 -2.1712E+02 -2.1702E+02 -2.1692E+02 -2.1681E+02 -2.1669E+02 -2.1658E+02 -2.1646E+02 -2.1634E+02 -2.1621E+02 -2.1608E+02 -2.1595E+02 -2.1581E+02 -2.1567E+02 -2.1552E+02 -2.1537E+02 -2.1521E+02 -2.1504E+02 -2.1487E+02 -2.1469E+02 -2.1451E+02 -2.1431E+02 -2.1411E+02 -2.1389E+02 -2.1366E+02 -2.1342E+02 -2.1316E+02 -2.1289E+02 -2.1259E+02 -2.1228E+02 -2.1196E+02 -2.1162E+02 -2.1128E+02 -2.1094E+02 -2.1062E+02 -2.1032E+02 -2.1005E+02 -2.0982E+02 -2.0963E+02 -2.0949E+02 -2.0940E+02 -2.0934E+02 -2.0933E+02 -2.0934E+02 -2.0939E+02 -2.0948E+02 -2.0964E+02 -2.0987E+02 -2.1021E+02 -2.1068E+02 -2.1127E+02 -2.1199E+02 -2.1284E+02 -2.1378E+02 -2.1479E+02 -2.1585E+02 -2.1692E+02 -2.1799E+02 -2.1902E+02 -2.1997E+02 -2.2080E+02 -2.2145E+02 -2.2185E+02 -2.2195E+02 -2.2173E+02 -2.2117E+02 -2.2029E+02 -2.1915E+02 -2.1781E+02 -2.1633E+02 -2.1478E+02 -2.1320E+02 -2.1163E+02 -2.1009E+02 -2.0858E+02 -2.0706E+02 -2.0550E+02 -2.0386E+02 -2.0206E+02 -2.0005E+02 -1.9776E+02 -1.9515E+02 -1.9219E+02 -1.8887E+02 -1.8519E+02 -1.8117E+02 -1.7685E+02 -1.7223E+02 -1.6734E+02 -1.6217E+02 -1.5672E+02 -1.5095E+02 -1.4485E+02 -1.3839E+02 -1.3159E+02 -1.2446E+02 -1.1707E+02 -1.0949E+02 -1.0181E+02 -9.4120E+01 -8.6515E+01 -7.9089E+01 -7.1941E+01 -6.5183E+01 -5.8938E+01 -5.3331E+01 -4.8474E+01 -4.4446E+01 -4.1280E+01 -3.8950E+01 -3.7374E+01 -3.6431E+01 -3.5978E+01 -3.5880E+01 -3.6022E+01 -3.6317E+01 -3.6711E+01 -3.7170E+01 -3.7678E+01 -3.8227E+01 -3.8814E+01 -3.9438E+01 -4.0097E+01 -4.0790E+01 -4.1515E+01 -4.2272E+01 -4.3058E+01 -4.3872E+01 -4.4712E+01 -4.5576E+01 -4.6462E+01 -4.7369E+01 -4.8295E+01 -4.9239E+01 -5.0199E+01 -5.1174E+01 -5.2162E+01 -5.3163E+01 -5.4175E+01 -5.5198E+01 -5.6230E+01 -5.7272E+01 -5.8331E+01 -5.9479E+01 -6.0881E+01 -6.2816E+01 -6.5633E+01 -6.9722E+01 -7.5384E+01 -8.2760E+01 -9.1734E+01 -1.0197E+02 -1.1294E+02 -1.2402E+02 -1.3459E+02 -1.4414E+02 -1.5236E+02 -1.5915E+02 -1.6457E+02 -1.6875E+02 -1.7192E+02 -1.7421E+02 -1.7636E+02 -1.7753E+02 -1.7797E+02
-2.1601E+02 -2.1629E+02 -2.1655E+02 -2.1677E+02 -2.1700E+02 -2.1719E+02 -2.1736E+02 -2.1750E+02 -2.1760E+02 -2.1767E+02 -2.1771E+02 -2.1771E+02 -2.1768E+02 -2.1764E+02 -2.1757E+02 -2.1749E+02 -2.1739E+02 -2.1729E+02 -2.1719E+02 -2.1708E+02 -2.1697E+02 -2.1685E+02 -2.1673E+02 -2.1661E+02 -2.1648E+02 -2.1635E+02 -2.1621E+02 -2.1608E+02 -2.1593E+02 -2.1578E+02 -2.1563E+02 -2.1547E+02 -2.1530E+02 -2.1513E+02 -2.1495E+02 -2.1476E+02 -2.1456E+02 -2.1436E+02 -2.1414E+02 -2.1391E+02 -2.1367E+02 -2.1341E+02 -2.1313E+02 -2.1283E+02 -2.1252E+02 -2.1219E+02 -2.1185E+02 -2.1150E+02 -2.1115E+02 -2.1080E+02 -2.1048E+02 -2.1018E+02 -2.0992E+02 -2.0970E+02 -2.0952E+02 -2.0940E+02 -2.0931E+02 -2.0927E+02 -2.0926E+02 -2.0930E+02 -2.0939E+02 -2.0954E+02 -2.0977E+02 -2.1012E+02 -2.1059E+02 -2.1120E+02 -2.1195E+02 -2.1281E+02 -2.1378E+02 -2.1482E+02 -2.1590E+02 -2.1700E+02 -2.1809E+02 -2.1913E+02 -2.2008E+02 -2.2089E+02 -2.2151E+02 -2.2187E+02 -2.2192E+02 -2.2165E+02 -2.2104E+02 -2.2013E+02 -2.1896E+02 -2.1760E+02 -2.1612E+02 -2.1457E+02 -2.1301E+02 -2.1146E+02 -2.0995E+02 -2.0845E+02 -2.0696E+02 -2.0543E+02 -2.0381E+02 -2.0203E+02 -2.0003E+02 -1.9774E+02 -1.9512E+02 -1.9214E+02 -1.8880E+02 -1.8510E+02 -1.8107E+02 -1.7675E+02 -1.7214E+02 -1.6726E+02 -1.6210E+02 -1.5666E+02 -1.5090E+02 -1.4481E+02 -1.3836E+02 -1.3156E+02 -1.2443E+02 -1.1705E+02 -1.0947E+02 -1.0180E+02 -9.4114E+01 -8.6501E+01 -7.9047E+01 -7.1847E+01 -6.5007E+01 -5.8647E+01 -5.2897E+01 -4.7878E+01 -4.3684E+01 -4.0362E+01 -3.7900E+01 -3.6226E+01 -3.5222E+01 -3.4745E+01 -3.4653E+01 -3.4823E+01 -3.5160E+01 -3.5600E+01 -3.6107E+01 -3.6662E+01 -3.7255E+01 -3.7884E+01 -3.8547E+01 -3.9244E+01 -3.9973E+01 -4.0733E+01 -4.1522E+01 -4.2338E+01 -4.3181E+01 -4.4048E+01 -4.4937E+01 -4.5847E+01 -4.6777E+01 -4.7725E+01 -4.8690E+01 -4.9670E+01 -5.0665E+01 -5.1673E+01 -5.2693E+01 -5.3724E+01 -5.4765E+01 -5.5816E+01 -5.6878E+01 -5.7959E+01 -5.9132E+01 -6.0556E+01 -6.2493E+01 -6.5274E+01 -6.9263E+01 -7.4742E+01 -8.1845E+01 -9.0474E+01 -1.0033E+02 -1.1093E+02 -1.2172E+02 -1.3211E+02 -1.4164E+02 -1.4999E+02 -1.5705E+02 -1.6280E+02 -1.6736E+02 -1.7091E+02 -1.7354E+02 -1.7603E+02 -1.7746E+02 -1.7806E+02
-2.1621E+02 -2.1650E+02 -2.1676E+02 -2.1699E+02 -2.1722E+02 -2.1742E+02 -2.1760E+02 -2.1774E+02 -2.1785E+02 -2.1792E+02 -2.1796E+02 -2.1797E+02 -2.1795E+02 -2.1791E+02 -2.1784E+02 -2.1776E+02 -2.1767E+02 -2.1757E+02 -2.1746E+02 -2.1735E+02 -2.1724E+02 -2.1712E+02 -2.1700E+02 -2.1688E+02 -2.1675E+02 -2.1662E+02 -2.1648E+02 -2.1634E+02 -2.1620E+02 -2.1605E+02 -2.1589E+02 -2.1573E+02 -2.1556E+02 -2.1539E+02 -2.1521E+02 -2.1502E+02 -2.1482E+02 -2.1461E+02 -2.1439E+02 -2.1416E+02 -2.1392E+02 -2.1365E+02 -2.1337E+02 -2.1308E+02 -2.1276E+02 -2.1243E+02 -2.1208E+02 -2.1172E+02 -2.1136E+02 -2.1100E+02 -2.1066E+02 -2.1033E+02 -2.1004E+02 -2.0978E+02 -2.0957E+02 -2.0941E+02 -2.0929E+02 -2.0922E+02 -2.0919E+02 -2.0921E+02 -2.0928E+02 -2.0942E+02 -2.0966E+02 -2.1001E+02 -2.1049E+02 -2.1112E+02 -2.1189E+02 -2.1278E+02 -2.1377E+02 -2.1484E+02 -2.1595E+02 -2.1708E+02 -2.1818E+02 -2.1924E+02 -2.2019E+02 -2.2098E+02 -2.2156E+02 -2.2187E+02 -2.2187E+02 -2.2154E+02 -2.2088E+02 -2.1992E+02 -2.1873E+02 -2.1735E+02 -2.1587E+02 -2.1433E+02 -2.1278E+02 -2.1125E+02 -2.0976E+02 -2.0829E+02 -2.0683E+02 -2.0532E+02 -2.0372E+02 -2.0196E+02 -1.9997E+02 -1.9767E+02 -1.9504E+02 -1.9205E+02 -1.8869E+02 -1.8498E+02 -1.8095E+02 -1.7662E+02 -1.7202E+02 -1.6716E+02 -1.6203E+02 -1.5661E+02 -1.5088E+02 -1.4480E+02 -1.3837E+02 -1.3159E+02 -1.2449E+02 -1.1712E+02 -1.0956E+02 -1.0191E+02 -9.4230E+01 -8.6615E+01 -7.9142E+01 -7.1896E+01 -6.4978E+01 -5.8507E+01 -5.2614E+01 -4.7429E+01 -4.3058E+01 -3.9564E+01 -3.6948E+01 -3.5152E+01 -3.4062E+01 -3.3539E+01 -3.3435E+01 -3.3619E+01 -3.3989E+01 -3.4473E+01 -3.5026E+01 -3.5627E+01 -3.6264E+01 -3.6935E+01 -3.7638E+01 -3.8372E+01 -3.9137E+01 -3.9930E+01 -4.0751E+01 -4.1598E+01 -4.2469E+01 -4.3363E+01 -4.4277E+01 -4.5211E+01 -4.6164E+01 -4.7134E+01 -4.8120E+01 -4.9122E+01 -5.0137E+01 -5.1166E+01 -5.2206E+01 -5.3257E+01 -5.4318E+01 -5.5389E+01 -5.6470E+01 -5.7574E+01 -5.8773E+01 -6.0217E+01 -6.2153E+01 -6.4887E+01 -6.8754E+01 -7.4016E+01 -8.0799E+01 -8.9024E+01 -9.8437E+01 -1.0862E+02 -1.1907E+02 -1.2926E+02 -1.3878E+02 -1.4730E+02 -1.5466E+02 -1.6083E+02 -1.6584E+02 -1.6982E+02 -1.7282E+02 -1.7569E+02 -1.7736E+02 -1.7809E+02
-2.1641E+02 -2.1670E+02 -2.1697E+02 -2.1721E+02 -2.1744E+02 -2.1765E+02 -2.1783E+02 -2.1798E+02 -2.1810E+02 -2.1818E+02 -2.1823E+02 -2.1824E+02 -2.1822E+02 -2.1818E+02 -2.1811E+02 -2.1803E+02 -2.1794E+02 -2.1784E+02 -2.1774E+02 -2.1763E+02 -2.1751E+02 -2.1740E+02 -2.1728E+02 -2.1715E+02 -2.1702E+02 -2.1689E+02 -2.1676E+02 -2.1661E+02 -2.1647E+02 -2.1632E+02 -2.1616E+02 -2.1600E+02 -2.1583E+02 -2.1565E+02 -2.1547E+02 -2.1528E+02 -2.1508E+02 -2.1487E+02 -2.1465E+02 -2.1442E+02 -2.1417E+02 -2.1391E+02 -2.1363E+02 -2.1333E+02 -2.1301E+02 -2.1267E+02 -2.1232E+02 -2.1196E+02 -2.1159E+02 -2.1122E+02 -2.1085E+02 -2.1051E+02 -2.1018E+02 -2.0989E+02 -2.0964E+02 -2.0944E+02 -2.0928E+02 -2.0918E+02 -2.0912E+02 -2.0911E+02 -2.0917E+02 -2.0930E+02 -2.0954E+02 -2.0989E+02 -2.1039E+02 -2.1103E+02 -2.1182E+02 -2.1273E+02 -2.1376E+02 -2.1486E+02 -2.1600E+02 -2.1715E+02 -2.1828E+02 -2.1934E+02 -2.2028E+02 -2.2106E+02 -2.2160E+02 -2.2186E+02 -2.2180E+02 -2.2140E+02 -2.2069E+02 -2.1969E+02 -2.1846E+02 -2.1708E+02 -2.1559E+02 -2.1406E+02 -2.1252E+02 -2.1101E+02 -2.0954E+02 -2.0810E+02 -2.0666E+02 -2.0518E+02 -2.0360E+02 -2.0186E+02 -1.9987E+02 -1.9757E+02 -1.9493E+02 -1.9192E+02 -1.8855E+02 -1.8483E+02 -1.8079E+02 -1.7647E+02 -1.7189E+02 -1.6705E+02 -1.6195E+02 -1.5656E+02 -1.5086E+02 -1.4483E+02 -1.3843E+02 -1.3168E+02 -1.2460E+02 -1.1727E+02 -1.0974E+02 -1.0211E+02 -9.4445E+01 -8.6832E+01 -7.9342E+01 -7.2055E+01 -6.5064E+01 -5.8487E+01 -5.2456E+01 -4.7106E+01 -4.2554E+01 -3.8877E+01 -3.6091E+01 -3.4151E+01 -3.2953E+01 -3.2359E+01 -3.2224E+01 -3.2408E+01 -3.2802E+01 -3.3323E+01 -3.3921E+01 -3.4568E+01 -3.5249E+01 -3.5962E+01 -3.6704E+01 -3.7476E+01 -3.8277E+01 -3.9104E+01 -3.9957E+01 -4.0833E+01 -4.1732E+01 -4.2653E+01 -4.3592E+01 -4.4551E+01 -4.5527E+01 -4.6520E+01 -4.7529E+01 -4.8552E+01 -4.9589E+01 -5.0639E+01 -5.1701E+01 -5.2773E+01 -5.3855E+01 -5.4946E+01 -5.6048E+01 -5.7176E+01 -5.8398E+01 -5.9857E+01 -6.1778E+01 -6.4442E+01 -6.8152E+01 -7.3146E+01 -7.9542E+01 -8.7287E+01 -9.6174E+01 -1.0586E+02 -1.1591E+02 -1.2589E+02 -1.3540E+02 -1.4413E+02 -1.5188E+02 -1.5855E+02 -1.6410E+02 -1.6859E+02 -1.7202E+02 -1.7533E+02 -1.7724E+02 -1.7806E+02
-2.1661E+02 -2.1690E+02 -2.1718E+02 -2.1742E+02 -2.1766E+02 -2.1788E+02 -2.1807E+02 -2.1823E+02 -2.1835E+02 -2.1844E+02 -2.1849E+02 -2.1850E+02 -2.1849E+02 -2.1845E+02 -2.1839E+02 -2.1831E+02 -2.1822E+02 -2.1812E+02 -2.1801E+02 -2.1790E+02 -2.1779E+02 -2.1767E+02 -2.1755E+02 -2.1743E+02 -2.1730E+02 -2.1717E+02 -2.1703E+02 -2.1689E+02 -2.1674E+02 -2.1659E+02 -2.1643E+02 -2.1627E+02 -2.1610E+02 -2.1592E+02 -2.1574E+02 -2.1555E+02 -2.1535E+02 -2.1514E+02 -2.1491E+02 -2.1468E+02 -2.1443E+02 -2.1416E+02 -2.1388E+02 -2.1358E+02 -2.1326E+02 -2.1292E+02 -2.1257E+02 -2.1220E+02 -2.1183E+02 -2.1144E+02 -2.1107E+02 -2.1070E+02 -2.1034E+02 -2.1002E+02 -2.0974E+02 -2.0949E+02 -2.0930E+02 -2.0916E+02 -2.0906E+02 -2.0903E+02 -2.0907E+02 -2.0919E+02 -2.0941E+02 -2.0977E+02 -2.1027E+02 -2.1093E+02 -2.1174E+02 -2.1268E+02 -2.1373E+02 -2.1486E+02 -2.1603E+02 -2.1721E+02 -2.1836E+02 -2.1943E+02 -2.2037E+02 -2.2113E+02 -2.2163E+02 -2.2184E+02 -2.2171E+02 -2.2126E+02 -2.2049E+02 -2.1944E+02 -2.1819E+02 -2.1679E+02 -2.1530E+02 -2.1378E+02 -2.1226E+02 -2.1077E+02 -2.0931E+02 -2.0789E+02 -2.0648E+02 -2.0502E+02 -2.0346E+02 -2.0173E+02 -1.9974E+02 -1.9744E+02 -1.9479E+02 -1.9177E+02 -1.8838E+02 -1.8464E+02 -1.8060E+02 -1.7629E+02 -1.7173E+02 -1.6691E+02 -1.6185E+02 -1.5650E+02 -1.5085E+02 -1.4485E+02 -1.3850E+02 -1.3179E+02 -1.2476E+02 -1.1746E+02 -1.0997E+02 -1.0236E+02 -9.4717E+01 -8.7109E+01 -7.9605E+01 -7.2280E+01 -6.5224E+01 -5.8550E+01 -5.2389E+01 -4.6881E+01 -4.2151E+01 -3.8287E+01 -3.5320E+01 -3.3218E+01 -3.1891E+01 -3.1207E+01 -3.1019E+01 -3.1188E+01 -3.1594E+01 -3.2147E+01 -3.2786E+01 -3.3477E+01 -3.4204E+01 -3.4959E+01 -3.5742E+01 -3.6551E+01 -3.7387E+01 -3.8248E+01 -3.9133E+01 -4.0039E+01 -4.0967E+01 -4.1915E+01 -4.2881E+01 -4.3864E+01 -4.4865E+01 -4.5881E+01 -4.6913E+01 -4.7960E+01 -4.9020E+01 -5.0092E+01 -5.1176E+01 -5.2270E+01 -5.3374E+01 -5.4487E+01 -5.5611E+01 -5.6761E+01 -5.8004E+01 -5.9468E+01 -6.1355E+01 -6.3917E+01 -6.7422E+01 -7.2083E+01 -7.8011E+01 -8.5177E+01 -9.3435E+01 -1.0252E+02 -1.1210E+02 -1.2182E+02 -1.3132E+02 -1.4031E+02 -1.4854E+02 -1.5582E+02 -1.6202E+02 -1.6714E+02 -1.7108E+02 -1.7493E+02 -1.7711E+02 -1.7797E+02
-2.1680E+02 -2.1711E+02 -2.1739E+02 -2.1764E+02 -2.1789E+02 -2.1811E+02 -2.1831E+02 -2.1847E+02 -2.1860E+02 -2.1869E+02 -2.1875E+02 -2.1877E+02 -2.1876E+02 -2.1872E+02 -2.1866E+02 -2.1858E+02 -2.1849E+02 -2.1840E+02 -2.1829E+02 -2.1818E+02 -2.1807E+02 -2.1795E+02 -2.1783E+02 -2.1771E+02 -2.1758E+02 -2.1744E+02 -2.1731E+02 -2.1716E+02 -2.1702E+02 -2.1687E+02 -2.1671E+02 -2.1654E+02 -2.1637E+02 -2.1620E+02 -2.1601E+02 -2.1582E+02 -2.1562E+02 -2.1540E+02 -2.1518E+02 -2.1494E+02 -2.1469E+02 -2.1442E+02 -2.1414E+02 -2.1384E+02 -2.1351E+02 -2.1318E+02 -2.1282E+02 -2.1245E+02 -2.1207E+02 -2.1168E+02 -2.1129E+02 -2.1090E+02 -2.1053E+02 -2.1018E+02 -2.0986E+02 -2.0957E+02 -2.0934E+02 -2.0916E+02 -2.0903E+02 -2.0897E+02 -2.0898E+02 -2.0908E+02 -2.0930E+02 -2.0966E+02 -2.1016E+02 -2.1083E+02 -2.1166E+02 -2.1262E+02 -2.1370E+02 -2.1486E+02 -2.1606E+02 -2.1726E+02 -2.1843E+02 -2.1951E+02 -2.2045E+02 -2.2118E+02 -2.2165E+02 -2.2180E+02 -2.2162E+02 -2.2111E+02 -2.2028E+02 -2.1920E+02 -2.1792E+02 -2.1651E+02 -2.1502E+02 -2.1351E+02 -2.1200E+02 -2.1053E+02 -2.0910E+02 -2.0770E+02 -2.0630E+02 -2.0486E+02 -2.0332E+02 -2.0159E+02 -1.9960E+02 -1.9729E+02 -1.9463E+02 -1.9158E+02 -1.8817E+02 -1.8443E+02 -1.8038E+02 -1.7608E+02 -1.7153E+02 -1.6674E+02 -1.6171E+02 -1.5641E+02 -1.5080E+02 -1.4485E+02 -1.3855E+02 -1.3189E+02 -1.2491E+02 -1.1765E+02 -1.1019E+02 -1.0262E+02 -9.4995E+01 -8.7392E+01 -7.9877E+01 -7.2519E+01 -6.5407E+01 -5.8648E+01 -5.2371E+01 -4.6718E+01 -4.1818E+01 -3.7770E+01 -3.4618E+01 -3.2345E+01 -3.0871E+01 -3.0077E+01 -2.9819E+01 -2.9957E+01 -3.0363E+01 -3.0939E+01 -3.1616E+01 -3.2351E+01 -3.3123E+01 -3.3921E+01 -3.4744E+01 -3.5592E+01 -3.6464E+01 -3.7359E+01 -3.8276E+01 -3.9213E+01 -4.0171E+01 -4.1146E+01 -4.2139E+01 -4.3149E+01 -4.4175E+01 -4.5217E+01 -4.6274E+01 -4.7344E+01 -4.8428E+01 -4.9524E+01 -5.0631E+01 -5.1749E+01 -5.2875E+01 -5.4010E+01 -5.5156E+01 -5.6329E+01 -5.7587E+01 -5.9045E+01 -6.0878E+01 -6.3303E+01 -6.6552E+01 -7.0810E+01 -7.6183E+01 -8.2669E+01 -9.0184E+01 -9.8560E+01 -1.0757E+02 -1.1695E+02 -1.2643E+02 -1.3570E+02 -1.4448E+02 -1.5249E+02 -1.5949E+02 -1.6536E+02 -1.6993E+02 -1.7446E+02 -1.7697E+02 -1.7785E+02
-2.1700E+02 -2.1731E+02 -2.1760E+02 -2.1786E+02 -2.1811E+02 -2.1834E+02 -2.1855E+02 -2.1872E+02 -2.1885E+02 -2.1895E+02 -2.1901E+02 -2.1904E+02 -2.1903E+02 -2.1900E+02 -2.1894E+02 -2.1886E+02 -2.1877E+02 -2.1867E+02 -2.1857E+02 -2.1846E+02 -2.1835E+02 -2.1823E+02 -2.1811E+02 -2.1799E+02 -2.1786E+02 -2.1772E+02 -2.1759E+02 -2.1744E+02 -2.1730E+02 -2.1714E+02 -2.1699E+02 -2.1682E+02 -2.1665E+02 -2.1647E+02 -2.1629E+02 -2.1609E+02 -2.1589E+02 -2.1567E+02 -2.1545E+02 -2.1521E+02 -2.1496E+02 -2.1469E+02 -2.1440E+02 -2.1410E+02 -2.1377E+02 -2.1343E+02 -2.1308E+02 -2.1270E+02 -2.1232E+02 -2.1192E+02 -2.1152E+02 -2.1112E+02 -2.1073E+02 -2.1035E+02 -2.1000E+02 -2.0968E+02 -2.0941E+02 -2.0919E+02 -2.0902E+02 -2.0892E+02 -2.0891E+02 -2.0899E+02 -2.0920E+02 -2.0955E+02 -2.1007E+02 -2.1074E+02 -2.1158E+02 -2.1257E+02 -2.1367E+02 -2.1485E+02 -2.1607E+02 -2.1730E+02 -2.1849E+02 -2.1958E+02 -2.2051E+02 -2.2122E+02 -2.2165E+02 -2.2176E+02 -2.2153E+02 -2.2097E+02 -2.2010E+02 -2.1899E+02 -2.1769E+02 -2.1627E+02 -2.1478E+02 -2.1328E+02 -2.1179E+02 -2.1033E+02 -2.0891E+02 -2.0752E+02 -2.0614E+02 -2.0471E+02 -2.0317E+02 -2.0144E+02 -1.9945E+02 -1.9713E+02 -1.9444E+02 -1.9137E+02 -1.8794E+02 -1.8418E+02 -1.8012E+02 -1.7581E+02 -1.7127E+02 -1.6651E+02 -1.6151E+02 -1.5625E+02 -1.5069E+02 -1.4480E+02 -1.3854E+02 -1.3194E+02 -1.2500E+02 -1.1779E+02 -1.1037E+02 -1.0282E+02 -9.5215E+01 -8.7618E+01 -8.0094E+01 -7.2711E+01 -6.5553E+01 -5.8724E+01 -5.2349E+01 -4.6569E+01 -4.1515E+01 -3.7293E+01 -3.3959E+01 -3.1509E+01 -2.9880E+01 -2.8962E+01 -2.8619E+01 -2.8710E+01 -2.9105E+01 -2.9698E+01 -3.0408E+01 -3.1185E+01 -3.2001E+01 -3.2843E+01 -3.3707E+01 -3.4594E+01 -3.5503E+01 -3.6433E+01 -3.7383E+01 -3.8353E+01 -3.9341E+01 -4.0346E+01 -4.1367E+01 -4.2405E+01 -4.3458E+01 -4.4526E+01 -4.5608E+01 -4.6704E+01 -4.7813E+01 -4.8934E+01 -5.0065E+01 -5.1207E+01 -5.2357E+01 -5.3515E+01 -5.4684E+01 -5.5879E+01 -5.7148E+01 -5.8589E+01 -6.0349E+01 -6.2607E+01 -6.5556E+01 -6.9354E+01 -7.4098E+01 -7.9814E+01 -8.6481E+01 -9.4036E+01 -1.0237E+02 -1.1134E+02 -1.2074E+02 -1.3029E+02 -1.3968E+02 -1.4851E+02 -1.5643E+02 -1.6321E+02 -1.6854E+02 -1.7391E+02 -1.7684E+02 -1.7775E+02
-2.1719E+02 -2.1751E+02 -2.1781E+02 -2.1807E+02 -2.1834E+02 -2.1858E+02 -2.1879E+02 -2.1896E+02 -2.1910E+02 -2.1921E+02 -2.1928E+02 -2.1931E+02 -2.1930E+02 -2.1927E+02 -2.1921E+02 -2.1914E+02 -2.1905E+02 -2.1895E+02 -2.1885E+02 -2.1874E+02 -2.1863E+02 -2.1851E+02 -2.1839E+02 -2.1827E+02 -2.1814E+02 -2.1801E+02 -2.1787E+02 -2.1773E+02 -2.1758E+02 -2.1743E+02 -2.1727E+02 -2.1710E+02 -2.1693E+02 -2.1675E+02 -2.1656E+02 -2.1637E+02 -2.1616E+02 -2.1595E+02 -2.1572E+02 -2.1548E+02 -2.1523E+02 -2.1495E+02 -2.1467E+02 -2.1436E+02 -2.1404E+02 -2.1369E+02 -2.1334E+02 -2.1296E+02 -2.1257E+02 -2.1218E+02 -2.1177E+02 -2.1136E+02 -2.1095E+02 -2.1055E+02 -2.1017E+02 -2.0982E+02 -2.0951E+02 -2.0925E+02 -2.0904E+02 -2.0891E+02 -2.0887E+02 -2.0893E+02 -2.0913E+02 -2.0947E+02 -2.0999E+02 -2.1067E+02 -2.1152E+02 -2.1252E+02 -2.1364E+02 -2.1484E+02 -2.1608E+02 -2.1733E+02 -2.1853E+02 -2.1962E+02 -2.2055E+02 -2.2124E+02 -2.2165E+02 -2.2172E+02 -2.2145E+02 -2.2085E+02 -2.1995E+02 -2.1881E+02 -2.1750E+02 -2.1607E+02 -2.1459E+02 -2.1310E+02 -2.1162E+02 -2.1017E+02 -2.0876E+02 -2.0738E+02 -2.0600E+02 -2.0458E+02 -2.0303E+02 -2.0129E+02 -1.9928E+02 -1.9694E+02 -1.9422E+02 -1.9113E+02 -1.8766E+02 -1.8387E+02 -1.7979E+02 -1.7548E+02 -1.7094E+02 -1.6620E+02 -1.6123E+02 -1.5600E+02 -1.5048E+02 -1.4463E+02 -1.3843E+02 -1.3187E+02 -1.2498E+02 -1.1780E+02 -1.1042E+02 -1.0290E+02 -9.5312E+01 -8.7722E+01 -8.0193E+01 -7.2793E+01 -6.5601E+01 -5.8719E+01 -5.2266E+01 -4.6380E+01 -4.1192E+01 -3.6812E+01 -3.3306E+01 -3.0684E+01 -2.8896E+01 -2.7846E+01 -2.7406E+01 -2.7441E+01 -2.7817E+01 -2.8418E+01 -2.9158E+01 -2.9976E+01 -3.0837E+01 -3.1723E+01 -3.2630E+01 -3.3556E+01 -3.4503E+01 -3.5469E+01 -3.6454E+01 -3.7456E+01 -3.8476E+01 -3.9512E+01 -4.0563E+01 -4.1630E+01 -4.2711E+01 -4.3807E+01 -4.4917E+01 -4.6039E+01 -4.7174E+01 -4.8321E+01 -4.9477E+01 -5.0644E+01 -5.1818E+01 -5.3001E+01 -5.4194E+01 -5.5409E+01 -5.6687E+01 -5.8105E+01 -5.9778E+01 -6.1852E+01 -6.4477E+01 -6.7786E+01 -7.1863E+01 -7.6758E+01 -8.2514E+01 -8.9171E+01 -9.6746E+01 -1.0521E+02 -1.1447E+02 -1.2428E+02 -1.3427E+02 -1.4398E+02 -1.5291E+02 -1.6071E+02 -1.6692E+02 -1.7326E+02 -1.7672E+02 -1.7770E+02
-2.1738E+02 -2.1771E+02 -2.1802E+02 -2.1829E+02 -2.1856E+02 -2.1881E+02 -2.1903E+02 -2.1921E+02 -2.1936E+02 -2.1947E+02 -2.1954E+02 -2.1958E+02 -2.1958E+02 -2.1955E+02 -2.1949E+02 -2.1942E+02 -2.1933E+02 -2.1924E+02 -2.1913E+02 -2.1902E+02 -2.1891E+02 -2.1880E+02 -2.1868E+02 -2.1855E+02 -2.1842E+02 -2.1829E+02 -2.1815E+02 -2.1801E+02 -2.1786E+02 -2.1771E+02 -2.1755E+02 -2.1739E+02 -2.1721E+02 -2.1703E+02 -2.1685E+02 -2.1665E+02 -2.1644E+02 -2.1623E+02 -2.1600E+02 -2.1576E+02 -2.1550E+02 -2.1523E+02 -2.1493E+02 -2.1463E+02 -2.1430E+02 -2.1396E+02 -2.1360E+02 -2.1322E+02 -2.1283E+02 -2.1243E+02 -2.1202E+02 -2.1160E+02 -2.1118E+02 -2.1076E+02 -2.1036E+02 -2.0998E+02 -2.0963E+02 -2.0933E+02 -2.0909E+02 -2.0893E+02 -2.0886E+02 -2.0890E+02 -2.0908E+02 -2.0942E+02 -2.0994E+02 -2.1063E+02 -2.1149E+02 -2.1249E+02 -2.1362E+02 -2.1483E+02 -2.1609E+02 -2.1734E+02 -2.1855E+02 -2.1965E+02 -2.2057E+02 -2.2125E+02 -2.2164E+02 -2.2169E+02 -2.2139E+02 -2.2076E+02 -2.1984E+02 -2.1869E+02 -2.1737E+02 -2.1594E+02 -2.1447E+02 -2.1298E+02 -2.1151E+02 -2.1007E+02 -2.0866E+02 -2.0728E+02 -2.0589E+02 -2.0445E+02 -2.0289E+02 -2.0113E+02 -1.9910E+02 -1.9672E+02 -1.9397E+02 -1.9083E+02 -1.8732E+02 -1.8349E+02 -1.7939E+02 -1.7505E+02 -1.7051E+02 -1.6576E+02 -1.6081E+02 -1.5561E+02 -1.5013E+02 -1.4431E+02 -1.3815E+02 -1.3163E+02 -1.2478E+02 -1.1764E+02 -1.1029E+02 -1.0279E+02 -9.5218E+01 -8.7636E+01 -8.0108E+01 -7.2700E+01 -6.5489E+01 -5.8571E+01 -5.2062E+01 -4.6092E+01 -4.0793E+01 -3.6276E+01 -3.2615E+01 -2.9831E+01 -2.7889E+01 -2.6707E+01 -2.6168E+01 -2.6140E+01 -2.6490E+01 -2.7097E+01 -2.7864E+01 -2.8722E+01 -2.9627E+01 -3.0559E+01 -3.1509E+01 -3.2477E+01 -3.3462E+01 -3.4465E+01 -3.5486E+01 -3.6523E+01 -3.7576E+01 -3.8644E+01 -3.9728E+01 -4.0825E+01 -4.1936E+01 -4.3061E+01 -4.4199E+01 -4.5349E+01 -4.6512E+01 -4.7685E+01 -4.8868E+01 -5.0060E+01 -5.1260E+01 -5.2468E+01 -5.3685E+01 -5.4922E+01 -5.6207E+01 -5.7599E+01 -5.9185E+01 -6.1072E+01 -6.3377E+01 -6.6201E+01 -6.9621E+01 -7.3702E+01 -7.8543E+01 -8.4283E+01 -9.1062E+01 -9.8978E+01 -1.0803E+02 -1.1803E+02 -1.2860E+02 -1.3917E+02 -1.4912E+02 -1.5798E+02 -1.6514E+02 -1.7256E+02 -1.7664E+02 -1.7774E+02
-2.1757E+02 -2.1791E+02 -2.1823E+02 -2.1851E+02 -2.1879E+02 -2.1904E+02 -2.1927E+02 -2.1946E+02 -2.1961E+02 -2.1973E+02 -2.1981E+02 -2.1985E+02 -2.1985E+02 -2.1983E+02 -2.1977E+02 -2.1970E+02 -2.1962E+02 -2.1952E+02 -2.1942E+02 -2.1931E+02 -2.1920E+02 -2.1908E+02 -2.1896E+02 -2.1884E+02 -2.1871E+02 -2.1858E+02 -2.1844E+02 -2.1830E+02 -2.1815E+02 -2.1800E+02 -2.1784E+02 -2.1767E+02 -2.1750E+02 -2.1732E+02 -2.1713E+02 -2.1694E+02 -2.1673E+02 -2.1651E+02 -2.1628E+02 -2.1604E+02 -2.1578E+02 -2.1550E+02 -2.1521E+02 -2.1490E+02 -2.1457E+02 -2.1423E+02 -2.1386E+02 -2.1349E+02 -2.1310E+02 -2.1269E+02 -2.1228E+02 -2.1185E+02 -2.1142E+02 -2.1099E+02 -2.1057E+02 -2.1016E+02 -2.0978E+02 -2.0945E+02 -2.0918E+02 -2.0898E+02 -2.0888E+02 -2.0890E+02 -2.0907E+02 -2.0940E+02 -2.0992E+02 -2.1061E+02 -2.1148E+02 -2.1249E+02 -2.1362E+02 -2.1483E+02 -2.1609E+02 -2.1735E+02 -2.1856E+02 -2.1966E+02 -2.2058E+02 -2.2125E+02 -2.2163E+02 -2.2167E+02 -2.2136E+02 -2.2072E+02 -2.1978E+02 -2.1862E+02 -2.1730E+02 -2.1588E+02 -2.1441E+02 -2.1292E+02 -2.1145E+02 -2.1001E+02 -2.0860E+02 -2.0720E+02 -2.0580E+02 -2.0434E+02 -2.0275E+02 -2.0095E+02 -1.9887E+02 -1.9645E+02 -1.9365E+02 -1.9045E+02 -1.8690E+02 -1.8302E+02 -1.7887E+02 -1.7450E+02 -1.6993E+02 -1.6518E+02 -1.6023E+02 -1.5504E+02 -1.4958E+02 -1.4379E+02 -1.3766E+02 -1.3117E+02 -1.2435E+02 -1.1725E+02 -1.0992E+02 -1.0244E+02 -9.4884E+01 -8.7313E+01 -7.9791E+01 -7.2384E+01 -6.5167E+01 -5.8230E+01 -5.1685E+01 -4.5656E+01 -4.0269E+01 -3.5638E+01 -3.1842E+01 -2.8912E+01 -2.6829E+01 -2.5521E+01 -2.4886E+01 -2.4796E+01 -2.5119E+01 -2.5730E+01 -2.6523E+01 -2.7420E+01 -2.8371E+01 -2.9350E+01 -3.0345E+01 -3.1355E+01 -3.2380E+01 -3.3422E+01 -3.4480E+01 -3.5553E+01 -3.6641E+01 -3.7744E+01 -3.8860E+01 -3.9990E+01 -4.1132E+01 -4.2288E+01 -4.3456E+01 -4.4635E+01 -4.5826E+01 -4.7027E+01 -4.8238E+01 -4.9457E+01 -5.0683E+01 -5.1918E+01 -5.3160E+01 -5.4418E+01 -5.5712E+01 -5.7082E+01 -5.8588E+01 -6.0307E+01 -6.2321E+01 -6.4708E+01 -6.7532E+01 -7.0871E+01 -7.4872E+01 -7.9757E+01 -8.5777E+01 -9.3146E+01 -1.0196E+02 -1.1210E+02 -1.2315E+02 -1.3450E+02 -1.4541E+02 -1.5528E+02 -1.6336E+02 -1.7184E+02 -1.7660E+02 -1.7787E+02
-2.1777E+02 -2.1812E+02 -2.1844E+02 -2.1873E+02 -2.1902E+02 -2.1928E+02 -2.1951E+02 -2.1971E+02 -2.1987E+02 -2.1999E+02 -2.2008E+02 -2.2012E+02 -2.2013E+02 -2.2010E+02 -2.2005E+02 -2.1998E+02 -2.1990E+02 -2.1980E+02 -2.1970E+02 -2.1959E+02 -2.1948E+02 -2.1937E+02 -2.1925E+02 -2.1913E+02 -2.1900E+02 -2.1887E+02 -2.1873E+02 -2.1859E+02 -2.1844E+02 -2.1829E+02 -2.1813E+02 -2.1797E+02 -2.1779E+02 -2.1761E+02 -2.1742E+02 -2.1722E+02 -2.1702E+02 -2.1680E+02 -2.1656E+02 -2.1632E+02 -2.1606E+02 -2.1578E+02 -2.1548E+02 -2.1517E+02 -2.1484E+02 -2.1450E+02 -2.1413E+02 -2.1376E+02 -2.1336E+02 -2.1296E+02 -2.1254E+02 -2.1211E+02 -2.1167E+02 -2.1123E+02 -2.1079E+02 -2.1036E+02 -2.0996E+02 -2.0959E+02 -2.0928E+02 -2.0905E+02 -2.0893E+02 -2.0893E+02 -2.0909E+02 -2.0942E+02 -2.0993E+02 -2.1063E+02 -2.1150E+02 -2.1251E+02 -2.1364E+02 -2.1485E+02 -2.1610E+02 -2.1736E+02 -2.1856E+02 -2.1965E+02 -2.2057E+02 -2.2125E+02 -2.2162E+02 -2.2166E+02 -2.2135E+02 -2.2071E+02 -2.1978E+02 -2.1862E+02 -2.1730E+02 -2.1588E+02 -2.1441E+02 -2.1292E+02 -2.1145E+02 -2.1000E+02 -2.0857E+02 -2.0715E+02 -2.0572E+02 -2.0421E+02 -2.0258E+02 -2.0073E+02 -1.9860E+02 -1.9612E+02 -1.9325E+02 -1.8999E+02 -1.8637E+02 -1.8243E+02 -1.7823E+02 -1.7381E+02 -1.6921E+02 -1.6444E+02 -1.5947E+02 -1.5428E+02 -1.4882E+02 -1.4305E+02 -1.3693E+02 -1.3047E+02 -1.2367E+02 -1.1658E+02 -1.0928E+02 -1.0182E+02 -9.4279E+01 -8.6723E+01 -7.9215E+01 -7.1819E+01 -6.4608E+01 -5.7669E+01 -5.1106E+01 -4.5037E+01 -3.9585E+01 -3.4862E+01 -3.0953E+01 -2.7897E+01 -2.5688E+01 -2.4268E+01 -2.3544E+01 -2.3397E+01 -2.3695E+01 -2.4310E+01 -2.5130E+01 -2.6069E+01 -2.7067E+01 -2.8094E+01 -2.9136E+01 -3.0191E+01 -3.1258E+01 -3.2340E+01 -3.3437E+01 -3.4547E+01 -3.5672E+01 -3.6811E+01 -3.7962E+01 -3.9126E+01 -4.0302E+01 -4.1490E+01 -4.2689E+01 -4.3900E+01 -4.5120E+01 -4.6350E+01 -4.7589E+01 -4.8836E+01 -5.0090E+01 -5.1352E+01 -5.2621E+01 -5.3902E+01 -5.5207E+01 -5.6562E+01 -5.8007E+01 -5.9589E+01 -6.1364E+01 -6.3391E+01 -6.5727E+01 -6.8458E+01 -7.1768E+01 -7.5948E+01 -8.1336E+01 -8.8240E+01 -9.6844E+01 -1.0707E+02 -1.1851E+02 -1.3049E+02 -1.4218E+02 -1.5292E+02 -1.6180E+02 -1.7121E+02 -1.7658E+02 -1.7806E+02
-2.1796E+02 -2.1832E+02 -2.1865E+02 -2.1895E+02 -2.1925E+02 -2.1952E+02 -2.1976E+02 -2.1996E+02 -2.2013E+02 -2.2026E+02 -2.2035E+02 -2.2040E+02 -2.2041E+02 -2.2039E+02 -2.2034E+02 -2.2027E+02 -2.2019E+02 -2.2009E+02 -2.1999E+02 -2.1988E+02 -2.1977E+02 -2.1966E+02 -2.1954E+02 -2.1942E+02 -2.1929E+02 -2.1916E+02 -2.1902E+02 -2.1888E+02 -2.1874E+02 -2.1858E+02 -2.1843E+02 -2.1826E+02 -2.1809E+02 -2.1791E+02 -2.1772E+02 -2.1752E+02 -2.1731E+02 -2.1709E+02 -2.1685E+02 -2.1660E+02 -2.1634E+02 -2.1606E+02 -2.1577E+02 -2.1545E+02 -2.1512E+02 -2.1477E+02 -2.1441E+02 -2.1403E+02 -2.1363E+02 -2.1322E+02 -2.1280E+02 -2.1237E+02 -2.1193E+02 -2.1148E+02 -2.1102E+02 -2.1058E+02 -2.1015E+02 -2.0975E+02 -2.0942E+02 -2.0916E+02 -2.0901E+02 -2.0899E+02 -2.0914E+02 -2.0946E+02 -2.0998E+02 -2.1068E+02 -2.1155E+02 -2.1256E+02 -2.1368E+02 -2.1488E+02 -2.1612E+02 -2.1736E+02 -2.1855E+02 -2.1964E+02 -2.2056E+02 -2.2124E+02 -2.2162E+02 -2.2167E+02 -2.2137E+02 -2.2074E+02 -2.1981E+02 -2.1866E+02 -2.1735E+02 -2.1593E+02 -2.1447E+02 -2.1298E+02 -2.1149E+02 -2.1002E+02 -2.0856E+02 -2.0711E+02 -2.0563E+02 -2.0408E+02 -2.0239E+02 -2.0047E+02 -1.9827E+02 -1.9571E+02 -1.9277E+02 -1.8943E+02 -1.8574E+02 -1.8173E+02 -1.7746E+02 -1.7299E+02 -1.6834E+02 -1.6353E+02 -1.5853E+02 -1.5332E+02 -1.4785E+02 -1.4207E+02 -1.3596E+02 -1.2950E+02 -1.2272E+02 -1.1566E+02 -1.0837E+02 -1.0093E+02 -9.3412E+01 -8.5878E+01 -7.8391E+01 -7.1015E+01 -6.3822E+01 -5.6892E+01 -5.0325E+01 -4.4233E+01 -3.8735E+01 -3.3941E+01 -2.9938E+01 -2.6776E+01 -2.4457E+01 -2.2937E+01 -2.2134E+01 -2.1935E+01 -2.2212E+01 -2.2834E+01 -2.3683E+01 -2.4664E+01 -2.5712E+01 -2.6791E+01 -2.7882E+01 -2.8984E+01 -3.0096E+01 -3.1220E+01 -3.2357E+01 -3.3508E+01 -3.4672E+01 -3.5848E+01 -3.7036E+01 -3.8237E+01 -3.9448E+01 -4.0670E+01 -4.1902E+01 -4.3145E+01 -4.4397E+01 -4.5658E+01 -4.6926E+01 -4.8202E+01 -4.9485E+01 -5.0774E+01 -5.2070E+01 -5.3375E+01 -5.4696E+01 -5.6048E+01 -5.7452E+01 -5.8938E+01 -6.0540E+01 -6.2307E+01 -6.4294E+01 -6.6598E+01 -6.9432E+01 -7.3135E+01 -7.8106E+01 -8.4711E+01 -9.3187E+01 -1.0348E+02 -1.1520E+02 -1.2762E+02 -1.3987E+02 -1.5121E+02 -1.6066E+02 -1.7073E+02 -1.7659E+02 -1.7828E+02
-2.1816E+02 -2.1852E+02 -2.1887E+02 -2.1917E+02 -2.1948E+02 -2.1976E+02 -2.2001E+02 -2.2022E+02 -2.2039E+02 -2.2053E+02 -2.2062E+02 -2.2067E+02 -2.2069E+02 -2.2067E+02 -2.2062E+02 -2.2055E+02 -2.2047E+02 -2.2038E+02 -2.2028E+02 -2.2017E+02 -2.2006E+02 -2.1995E+02 -2.1983E+02 -2.1971E+02 -2.1958E+02 -2.1945E+02 -2.1932E+02 -2.1918E+02 -2.1903E+02 -2.1888E+02 -2.1872E+02 -2.1856E+02 -2.1838E+02 -2.1820E+02 -2.1801E+02 -2.1781E+02 -2.1760E+02 -2.1738E+02 -2.1715E+02 -2.1690E+02 -2.1663E+02 -2.1635E+02 -2.1605E+02 -2.1574E+02 -2.1540E+02 -2.1505E+02 -2.1469E+02 -2.1430E+02 -2.1391E+02 -2.1350E+02 -2.1307E+02 -2.1264E+02 -2.1219E+02 -2.1173E+02 -2.1127E+02 -2.1080E+02 -2.1035E+02 -2.0993E+02 -2.0957E+02 -2.0928E+02 -2.0911E+02 -2.0908E+02 -2.0921E+02 -2.0954E+02 -2.1005E+02 -2.1076E+02 -2.1162E+02 -2.1263E+02 -2.1374E+02 -2.1492E+02 -2.1614E+02 -2.1736E+02 -2.1854E+02 -2.1962E+02 -2.2053E+02 -2.2122E+02 -2.2162E+02 -2.2168E+02 -2.2141E+02 -2.2080E+02 -2.1990E+02 -2.1876E+02 -2.1746E+02 -2.1604E+02 -2.1457E+02 -2.1307E+02 -2.1157E+02 -2.1007E+02 -2.0858E+02 -2.0708E+02 -2.0554E+02 -2.0392E+02 -2.0216E+02 -2.0017E+02 -1.9789E+02 -1.9525E+02 -1.9222E+02 -1.8880E+02 -1.8502E+02 -1.8093E+02 -1.7659E+02 -1.7205E+02 -1.6735E+02 -1.6248E+02 -1.5744E+02 -1.5219E+02 -1.4669E+02 -1.4090E+02 -1.3478E+02 -1.2832E+02 -1.2155E+02 -1.1450E+02 -1.0723E+02 -9.9816E+01 -9.2324E+01 -8.4818E+01 -7.7360E+01 -7.0014E+01 -6.2847E+01 -5.5937E+01 -4.9377E+01 -4.3274E+01 -3.7744E+01 -3.2894E+01 -2.8815E+01 -2.5561E+01 -2.3145E+01 -2.1536E+01 -2.0660E+01 -2.0413E+01 -2.0670E+01 -2.1298E+01 -2.2176E+01 -2.3201E+01 -2.4302E+01 -2.5435E+01 -2.6581E+01 -2.7733E+01 -2.8893E+01 -3.0063E+01 -3.1244E+01 -3.2437E+01 -3.3642E+01 -3.4859E+01 -3.6087E+01 -3.7326E+01 -3.8574E+01 -3.9833E+01 -4.1101E+01 -4.2377E+01 -4.3662E+01 -4.4954E+01 -4.6254E+01 -4.7560E+01 -4.8872E+01 -5.0190E+01 -5.1513E+01 -5.2844E+01 -5.4185E+01 -5.5542E+01 -5.6929E+01 -5.8358E+01 -5.9854E+01 -6.1463E+01 -6.3250E+01 -6.5328E+01 -6.7936E+01 -7.1443E+01 -7.6272E+01 -8.2810E+01 -9.1303E+01 -1.0170E+02 -1.1360E+02 -1.2625E+02 -1.3876E+02 -1.5040E+02 -1.6012E+02 -1.7050E+02 -1.7663E+02 -1.7849E+02
-2.1835E+02 -2.1873E+02 -2.1908E+02 -2.1940E+02 -2.1971E+02 -2.2000E+02 -2.2026E+02 -2.2048E+02 -2.2066E+02 -2.2080E+02 -2.2089E+02 -2.2095E+02 -2.2097E+02 -2.2095E+02 -2.2091E+02 -2.2084E+02 -2.2076E+02 -2.2067E+02 -2.2057E+02 -2.2046E+02 -2.2035E+02 -2.2024E+02 -2.2013E+02 -2.2001E+02 -2.1988E+02 -2.1975E+02 -2.1962E+02 -2.1948E+02 -2.1933E+02 -2.1918E+02 -2.1902E+02 -2.1886E+02 -2.1869E+02 -2.1850E+02 -2.1831E+02 -2.1811E+02 -2.1790E+02 -2.1768E+02 -2.1744E+02 -2.1719E+02 -2.1693E+02 -2.1664E+02 -2.1634E+02 -2.1603E+02 -2.1569E+02 -2.1534E+02 -2.1497E+02 -2.1459E+02 -2.1419E+02 -2.1377E+02 -2.1335E+02 -2.1291E+02 -2.1246E+02 -2.1199E+02 -2.1152E+02 -2.1104E+02 -2.1057E+02 -2.1013E+02 -2.0973E+02 -2.0942E+02 -2.0923E+02 -2.0918E+02 -2.0931E+02 -2.0963E+02 -2.1015E+02 -2.1085E+02 -2.1172E+02 -2.1271E+02 -2.1381E+02 -2.1497E+02 -2.1617E+02 -2.1737E+02 -2.1853E+02 -2.1959E+02 -2.2051E+02 -2.2120E+02 -2.2162E+02 -2.2171E+02 -2.2147E+02 -2.2089E+02 -2.2001E+02 -2.1889E+02 -2.1760E+02 -2.1619E+02 -2.1471E+02 -2.1319E+02 -2.1167E+02 -2.1013E+02 -2.0860E+02 -2.0704E+02 -2.0545E+02 -2.0376E+02 -2.0191E+02 -1.9984E+02 -1.9747E+02 -1.9474E+02 -1.9162E+02 -1.8811E+02 -1.8425E+02 -1.8008E+02 -1.7566E+02 -1.7105E+02 -1.6627E+02 -1.6134E+02 -1.5625E+02 -1.5095E+02 -1.4540E+02 -1.3958E+02 -1.3344E+02 -1.2698E+02 -1.2021E+02 -1.1317E+02 -1.0593E+02 -9.8551E+01 -9.1094E+01 -8.3625E+01 -7.6204E+01 -6.8894E+01 -6.1759E+01 -5.4874E+01 -4.8328E+01 -4.2223E+01 -3.6670E+01 -3.1774E+01 -2.7627E+01 -2.4291E+01 -2.1785E+01 -2.0089E+01 -1.9140E+01 -1.8841E+01 -1.9074E+01 -1.9705E+01 -2.0608E+01 -2.1677E+01 -2.2833E+01 -2.4025E+01 -2.5229E+01 -2.6437E+01 -2.7650E+01 -2.8870E+01 -3.0100E+01 -3.1339E+01 -3.2589E+01 -3.3850E+01 -3.5120E+01 -3.6400E+01 -3.7689E+01 -3.8986E+01 -4.0291E+01 -4.1603E+01 -4.2922E+01 -4.4248E+01 -4.5579E+01 -4.6915E+01 -4.8257E+01 -4.9604E+01 -5.0955E+01 -5.2312E+01 -5.3676E+01 -5.5048E+01 -5.6435E+01 -5.7841E+01 -5.9289E+01 -6.0832E+01 -6.2557E+01 -6.4604E+01 -6.7235E+01 -7.0832E+01 -7.5815E+01 -8.2546E+01 -9.1232E+01 -1.0179E+02 -1.1379E+02 -1.2648E+02 -1.3898E+02 -1.5056E+02 -1.6024E+02 -1.7053E+02 -1.7669E+02 -1.7867E+02
-2.1855E+02 -2.1894E+02 -2.1930E+02 -2.1962E+02 -2.1995E+02 -2.2024E+02 -2.2051E+02 -2.2074E+02 -2.2092E+02 -2.2107E+02 -2.2117E+02 -2.2123E+02 -2.2125E+02 -2.2124E+02 -2.2119E+02 -2.2113E+02 -2.2105E+02 -2.2096E+02 -2.2086E+02 -2.2076E+02 -2.2065E+02 -2.2054E+02 -2.2042E+02 -2.2030E+02 -2.2018E+02 -2.2005E+02 -2.1992E+02 -2.1978E+02 -2.1964E+02 -2.1949E+02 -2.1933E+02 -2.1916E+02 -2.1899E+02 -2.1881E+02 -2.1862E+02 -2.1842E+02 -2.1821E+02 -2.1798E+02 -2.1775E+02 -2.1749E+02 -2.1723E+02 -2.1694E+02 -2.1664E+02 -2.1632E+02 -2.1598E+02 -2.1563E+02 -2.1526E+02 -2.1487E+02 -2.1447E+02 -2.1406E+02 -2.1363E+02 -2.1318E+02 -2.1273E+02 -2.1226E+02 -2.1177E+02 -2.1128E+02 -2.1080E+02 -2.1033E+02 -2.0992E+02 -2.0958E+02 -2.0937E+02 -2.0931E+02 -2.0943E+02 -2.0975E+02 -2.1026E+02 -2.1096E+02 -2.1182E+02 -2.1281E+02 -2.1389E+02 -2.1503E+02 -2.1620E+02 -2.1737E+02 -2.1851E+02 -2.1956E+02 -2.2047E+02 -2.2118E+02 -2.2162E+02 -2.2175E+02 -2.2154E+02 -2.2099E+02 -2.2015E+02 -2.1906E+02 -2.1777E+02 -2.1636E+02 -2.1487E+02 -2.1334E+02 -2.1178E+02 -2.1021E+02 -2.0863E+02 -2.0702E+02 -2.0535E+02 -2.0359E+02 -2.0166E+02 -1.9951E+02 -1.9705E+02 -1.9423E+02 -1.9102E+02 -1.8743E+02 -1.8348E+02 -1.7923E+02 -1.7473E+02 -1.7005E+02 -1.6520E+02 -1.6020E+02 -1.5503E+02 -1.4967E+02 -1.4407E+02 -1.3821E+02 -1.3204E+02 -1.2556E+02 -1.1880E+02 -1.1179E+02 -1.0458E+02 -9.7233E+01 -8.9820E+01 -8.2396E+01 -7.5020E+01 -6.7751E+01 -6.0652E+01 -5.3795E+01 -4.7265E+01 -4.1160E+01 -3.5587E+01 -3.0649E+01 -2.6439E+01 -2.3020E+01 -2.0422E+01 -1.8633E+01 -1.7602E+01 -1.7241E+01 -1.7436E+01 -1.8059E+01 -1.8981E+01 -2.0090E+01 -2.1301E+01 -2.2555E+01 -2.3824E+01 -2.5095E+01 -2.6368E+01 -2.7645E+01 -2.8928E+01 -3.0219E+01 -3.1519E+01 -3.2828E+01 -3.4145E+01 -3.5469E+01 -3.6800E+01 -3.8138E+01 -3.9482E+01 -4.0832E+01 -4.2187E+01 -4.3546E+01 -4.4909E+01 -4.6277E+01 -4.7648E+01 -4.9023E+01 -5.0402E+01 -5.1786E+01 -5.3173E+01 -5.4566E+01 -5.5964E+01 -5.7373E+01 -5.8814E+01 -6.0364E+01 -6.2137E+01 -6.4311E+01 -6.7177E+01 -7.1116E+01 -7.6516E+01 -8.3677E+01 -9.2727E+01 -1.0352E+02 -1.1557E+02 -1.2814E+02 -1.4038E+02 -1.5162E+02 -1.6097E+02 -1.7082E+02 -1.7677E+02 -1.7881E+02
-2.1875E+02 -2.1915E+02 -2.1952E+02 -2.1985E+02 -2.2019E+02 -2.2049E+02 -2.2076E+02 -2.2100E+02 -2.2119E+02 -2.2134E+02 -2.2145E+02 -2.2151E+02 -2.2153E+02 -2.2152E+02 -2.2148E+02 -2.2142E+02 -2.2134E+02 -2.2125E+02 -2.2115E+02 -2.2105E+02 -2.2095E+02 -2.2084E+02 -2.2072E+02 -2.2061E+02 -2.2048E+02 -2.2036E+02 -2.2022E+02 -2.2009E+02 -2.1994E+02 -2.1979E+02 -2.1964E+02 -2.1947E+02 -2.1930E+02 -2.1912E+02 -2.1893E+02 -2.1873E+02 -2.1852E+02 -2.1829E+02 -2.1805E+02 -2.1780E+02 -2.1753E+02 -2.1724E+02 -2.1694E+02 -2.1662E+02 -2.1628E+02 -2.1592E+02 -2.1555E+02 -2.1516E+02 -2.1476E+02 -2.1434E+02 -2.1391E+02 -2.1347E+02 -2.1300E+02 -2.1253E+02 -2.1204E+02 -2.1153E+02 -2.1103E+02 -2.1055E+02 -2.1011E+02 -2.0975E+02 -2.0952E+02 -2.0944E+02 -2.0955E+02 -2.0987E+02 -2.1038E+02 -2.1108E+02 -2.1193E+02 -2.1290E+02 -2.1396E+02 -2.1508E+02 -2.1622E+02 -2.1737E+02 -2.1848E+02 -2.1952E+02 -2.2043E+02 -2.2115E+02 -2.2162E+02 -2.2178E+02 -2.2162E+02 -2.2111E+02 -2.2031E+02 -2.1924E+02 -2.1797E+02 -2.1656E+02 -2.1506E+02 -2.1350E+02 -2.1191E+02 -2.1030E+02 -2.0867E+02 -2.0700E+02 -2.0526E+02 -2.0343E+02 -2.0143E+02 -1.9919E+02 -1.9665E+02 -1.9375E+02 -1.9046E+02 -1.8679E+02 -1.8276E+02 -1.7844E+02 -1.7387E+02 -1.6912E+02 -1.6420E+02 -1.5912E+02 -1.5389E+02 -1.4845E+02 -1.4280E+02 -1.3688E+02 -1.3068E+02 -1.2419E+02 -1.1743E+02 -1.1044E+02 -1.0327E+02 -9.5972E+01 -8.8611E+01 -8.1240E+01 -7.3913E+01 -6.6687E+01 -5.9624E+01 -5.2793E+01 -4.6276E+01 -4.0169E+01 -3.4574E+01 -2.9593E+01 -2.5316E+01 -2.1810E+01 -1.9109E+01 -1.7213E+01 -1.6081E+01 -1.5637E+01 -1.5776E+01 -1.6373E+01 -1.7301E+01 -1.8443E+01 -1.9707E+01 -2.1027E+01 -2.2367E+01 -2.3709E+01 -2.5051E+01 -2.6392E+01 -2.7737E+01 -2.9087E+01 -3.0442E+01 -3.1804E+01 -3.3171E+01 -3.4543E+01 -3.5920E+01 -3.7300E+01 -3.8685E+01 -4.0073E+01 -4.1464E+01 -4.2857E+01 -4.4253E+01 -4.5651E+01 -4.7051E+01 -4.8454E+01 -4.9860E+01 -5.1269E+01 -5.2681E+01 -5.4095E+01 -5.5513E+01 -5.6937E+01 -5.8401E+01 -6.0004E+01 -6.1902E+01 -6.4319E+01 -6.7569E+01 -7.2029E+01 -7.8033E+01 -8.5794E+01 -9.5330E+01 -1.0640E+02 -1.1847E+02 -1.3082E+02 -1.4261E+02 -1.5331E+02 -1.6212E+02 -1.7130E+02 -1.7687E+02 -1.7892E+02
-2.1895E+02 -2.1936E+02 -2.1974E+02 -2.2008E+02 -2.2042E+02 -2.2074E+02 -2.2102E+02 -2.2126E+02 -2.2146E+02 -2.2162E+02 -2.2173E+02 -2.2179E+02 -2.2182E+02 -2.2181E+02 -2.2177E+02 -2.2171E+02 -2.2163E+02 -2.2154E+02 -2.2145E+02 -2.2135E+02 -2.2125E+02 -2.2114E+02 -2.2103E+02 -2.2091E+02 -2.2079E+02 -2.2066E+02 -2.2053E+02 -2.2040E+02 -2.2025E+02 -2.2010E+02 -2.1995E+02 -2.1978E+02 -2.1961E+02 -2.1943E+02 -2.1924E+02 -2.1904E+02 -2.1883E+02 -2.1860E+02 -2.1836E+02 -2.1811E+02 -2.1784E+02 -2.1755E+02 -2.1725E+02 -2.1692E+02 -2.1658E+02 -2.1622E+02 -2.1585E+02 -2.1546E+02 -2.1505E+02 -2.1463E+02 -2.1420E+02 -2.1375E+02 -2.1329E+02 -2.1280E+02 -2.1230E+02 -2.1179E+02 -2.1127E+02 -2.1077E+02 -2.1031E+02 -2.0993E+02 -2.0968E+02 -2.0959E+02 -2.0969E+02 -2.0999E+02 -2.1050E+02 -2.1119E+02 -2.1203E+02 -2.1299E+02 -2.1403E+02 -2.1512E+02 -2.1624E+02 -2.1736E+02 -2.1845E+02 -2.1948E+02 -2.2039E+02 -2.2112E+02 -2.2162E+02 -2.2182E+02 -2.2170E+02 -2.2124E+02 -2.2047E+02 -2.1943E+02 -2.1817E+02 -2.1676E+02 -2.1525E+02 -2.1367E+02 -2.1205E+02 -2.1039E+02 -2.0871E+02 -2.0699E+02 -2.0520E+02 -2.0330E+02 -2.0123E+02 -1.9892E+02 -1.9631E+02 -1.9334E+02 -1.8998E+02 -1.8625E+02 -1.8216E+02 -1.7778E+02 -1.7315E+02 -1.6834E+02 -1.6335E+02 -1.5821E+02 -1.5290E+02 -1.4739E+02 -1.4167E+02 -1.3570E+02 -1.2946E+02 -1.2295E+02 -1.1620E+02 -1.0924E+02 -1.0211E+02 -9.4866E+01 -8.7563E+01 -8.0247E+01 -7.2970E+01 -6.5786E+01 -5.8753E+01 -5.1941E+01 -4.5430E+01 -3.9315E+01 -3.3693E+01 -2.8661E+01 -2.4309E+01 -2.0704E+01 -1.7886E+01 -1.5863E+01 -1.4606E+01 -1.4053E+01 -1.4110E+01 -1.4660E+01 -1.5578E+01 -1.6744E+01 -1.8058E+01 -1.9447E+01 -2.0864E+01 -2.2286E+01 -2.3706E+01 -2.5123E+01 -2.6538E+01 -2.7953E+01 -2.9371E+01 -3.0790E+01 -3.2211E+01 -3.3634E+01 -3.5058E+01 -3.6484E+01 -3.7910E+01 -3.9336E+01 -4.0763E+01 -4.2190E+01 -4.3618E+01 -4.5045E+01 -4.6474E+01 -4.7903E+01 -4.9334E+01 -5.0767E+01 -5.2201E+01 -5.3638E+01 -5.5075E+01 -5.6522E+01 -5.8024E+01 -5.9708E+01 -6.1775E+01 -6.4495E+01 -6.8207E+01 -7.3274E+01 -7.9969E+01 -8.8403E+01 -9.8472E+01 -1.0983E+02 -1.2190E+02 -1.3396E+02 -1.4524E+02 -1.5529E+02 -1.6347E+02 -1.7186E+02 -1.7699E+02 -1.7902E+02
