-8.1937E+01 -8.1953E+01 -8.1967E+01 -8.1980E+01 -8.1989E+01 -8.1999E+01 -8.2008E+01 -8.2015E+01 -8.2020E+01 -8.2023E+01 -8.2025E+01 -8.2025E+01 -8.2023E+01 -8.2021E+01 -8.2017E+01 -8.2012E+01 -8.2007E+01 -8.2001E+01 -8.1994E+01 -8.1987E+01 -8.1979E+01 -8.1971E+01 -8.1963E+01 -8.1954E+01 -8.1945E+01 -8.1935E+01 -8.1925E+01 -8.1915E+01 -8.1904E+01 -8.1893E+01 -8.1881E+01 -8.1869E+01 -8.1857E+01 -8.1843E+01 -8.1830E+01 -8.1815E+01 -8.1800E+01 -8.1784E+01 -8.1767E+01 -8.1749E+01 -8.1730E+01 -8.1711E+01 -8.1690E+01 -8.1669E+01 -8.1646E+01 -8.1622E+01 -8.1597E+01 -8.1572E+01 -8.1545E+01 -8.1518E+01 -8.1490E+01 -8.1462E+01 -8.1433E+01 -8.1404E+01 -8.1375E+01 -8.1346E+01 -8.1317E+01 -8.1289E+01 -8.1262E+01 -8.1235E+01 -8.1210E+01 -8.1186E+01 -8.1163E+01 -8.1142E+01 -8.1123E+01 -8.1106E+01 -8.1091E+01 -8.1078E+01 -8.1067E+01 -8.1058E+01 -8.1052E+01 -8.1049E+01 -8.1056E+01 -8.1081E+01 -8.1138E+01 -8.1252E+01 -8.1455E+01 -8.1791E+01 -8.2309E+01 -8.3065E+01 -8.4110E+01 -8.5490E+01 -8.7235E+01 -8.9360E+01 -9.1858E+01 -9.4708E+01 -9.7875E+01 -1.0132E+02 -1.0501E+02 -1.0890E+02 -1.1299E+02 -1.1726E+02 -1.2172E+02 -1.2635E+02 -1.3115E+02 -1.3608E+02 -1.4110E+02 -1.4613E+02 -1.5108E+02 -1.5585E+02 -1.6032E+02 -1.6441E+02 -1.6803E+02 -1.7113E+02 -1.7367E+02 -1.7565E+02 -1.7706E+02 -1.7794E+02 -1.7829E+02 -1.7815E+02 -1.7752E+02 -1.7642E+02 -1.7485E+02 -1.7282E+02 -1.7036E+02 -1.6749E+02 -1.6427E+02 -1.6076E+02 -1.5707E+02 -1.5329E+02 -1.4957E+02 -1.4600E+02 -1.4269E+02 -1.3975E+02 -1.3722E+02 -1.3516E+02 -1.3355E+02 -1.3239E+02 -1.3162E+02 -1.3119E+02 -1.3105E+02 -1.3112E+02 -1.3135E+02 -1.3170E+02 -1.3213E+02 -1.3260E+02 -1.3311E+02 -1.3362E+02 -1.3414E+02 -1.3465E+02 -1.3516E+02 -1.3566E+02 -1.3614E+02 -1.3662E+02 -1.3708E+02 -1.3752E+02 -1.3796E+02 -1.3838E+02 -1.3878E+02 -1.3918E+02 -1.3956E+02 -1.3994E+02 -1.4030E+02 -1.4066E+02 -1.4100E+02 -1.4134E+02 -1.4168E+02 -1.4201E+02 -1.4233E+02 -1.4265E+02 -1.4297E+02 -1.4329E+02 -1.4360E+02 -1.4392E+02 -1.4423E+02 -1.4454E+02 -1.4486E+02 -1.4517E+02 -1.4549E+02 -1.4581E+02 -1.4613E+02 -1.4646E+02 -1.4679E+02 -1.4713E+02 -1.4747E+02 -1.4782E+02 -1.4817E+02 -1.4853E+02 -1.4889E+02 -1.4927E+02
-8.2635E+01 -8.2649E+01 -8.2661E+01 -8.2671E+01 -8.2679E+01 -8.2687E+01 -8.2693E+01 -8.2697E+01 -8.2700E+01 -8.2701E+01 -8.2700E+01 -8.2698E+01 -8.2694E+01 -8.2689E+01 -8.2683E+01 -8.2676E+01 -8.2668E+01 -8.2660E+01 -8.2651E+01 -8.2641E+01 -8.2632E+01 -8.2622E+01 -8.2611E+01 -8.2601E+01 -8.2589E+01 -8.2578E+01 -8.2566E+01 -8.2553E+01 -8.2540E+01 -8.2527E+01 -8.2513E+01 -8.2499E+01 -8.2484E+01 -8.2468E+01 -8.2452E+01 -8.2435E+01 -8.2417E+01 -8.2399E+01 -8.2379E+01 -8.2359E+01 -8.2338E+01 -8.2316E+01 -8.2292E+01 -8.2268E+01 -8.2243E+01 -8.2216E+01 -8.2189E+01 -8.2160E+01 -8.2131E+01 -8.2100E+01 -8.2069E+01 -8.2038E+01 -8.2005E+01 -8.1972E+01 -8.1939E+01 -8.1906E+01 -8.1872E+01 -8.1838E+01 -8.1804E+01 -8.1771E+01 -8.1738E+01 -8.1705E+01 -8.1673E+01 -8.1642E+01 -8.1611E+01 -8.1582E+01 -8.1553E+01 -8.1526E+01 -8.1499E+01 -8.1473E+01 -8.1447E+01 -8.1424E+01 -8.1406E+01 -8.1401E+01 -8.1420E+01 -8.1483E+01 -8.1619E+01 -8.1866E+01 -8.2273E+01 -8.2894E+01 -8.3783E+01 -8.4989E+01 -8.6550E+01 -8.8488E+01 -9.0807E+01 -9.3493E+01 -9.6519E+01 -9.9850E+01 -1.0345E+02 -1.0730E+02 -1.1137E+02 -1.1565E+02 -1.2014E+02 -1.2483E+02 -1.2971E+02 -1.3475E+02 -1.3989E+02 -1.4507E+02 -1.5019E+02 -1.5515E+02 -1.5984E+02 -1.6416E+02 -1.6802E+02 -1.7137E+02 -1.7416E+02 -1.7639E+02 -1.7807E+02 -1.7920E+02 -1.7981E+02 -1.7992E+02 -1.7954E+02 -1.7868E+02 -1.7735E+02 -1.7554E+02 -1.7327E+02 -1.7056E+02 -1.6744E+02 -1.6399E+02 -1.6028E+02 -1.5643E+02 -1.5256E+02 -1.4879E+02 -1.4523E+02 -1.4200E+02 -1.3918E+02 -1.3682E+02 -1.3493E+02 -1.3353E+02 -1.3255E+02 -1.3197E+02 -1.3171E+02 -1.3171E+02 -1.3191E+02 -1.3224E+02 -1.3267E+02 -1.3316E+02 -1.3368E+02 -1.3421E+02 -1.3475E+02 -1.3528E+02 -1.3580E+02 -1.3631E+02 -1.3680E+02 -1.3728E+02 -1.3775E+02 -1.3820E+02 -1.3863E+02 -1.3905E+02 -1.3945E+02 -1.3985E+02 -1.4023E+02 -1.4059E+02 -1.4095E+02 -1.4130E+02 -1.4165E+02 -1.4198E+02 -1.4231E+02 -1.4263E+02 -1.4295E+02 -1.4327E+02 -1.4358E+02 -1.4389E+02 -1.4420E+02 -1.4451E+02 -1.4481E+02 -1.4512E+02 -1.4542E+02 -1.4573E+02 -1.4604E+02 -1.4635E+02 -1.4667E+02 -1.4699E+02 -1.4731E+02 -1.4764E+02 -1.4797E+02 -1.4831E+02 -1.4865E+02 -1.4900E+02 -1.4935E+02 -1.4973E+02
-8.3333E+01 -8.3345E+01 -8.3355E+01 -8.3363E+01 -8.3368E+01 -8.3374E+01 -8.3377E+01 -8.3379E+01 -8.3380E+01 -8.3378E+01 -8.3375E+01 -8.3371E+01 -8.3365E+01 -8.3357E+01 -8.3349E+01 -8.3340E+01 -8.3330E+01 -8.3320E+01 -8.3309E+01 -8.3298E+01 -8.3286E+01 -8.3274E+01 -8.3262E+01 -8.3249E+01 -8.3236E+01 -8.3223E+01 -8.3209E+01 -8.3194E+01 -8.3179E+01 -8.3163E+01 -8.3147E+01 -8.3131E+01 -8.3113E+01 -8.3096E+01 -8.3077E+01 -8.3058E+01 -8.3038E+01 -8.3017E+01 -8.2995E+01 -8.2973E+01 -8.2949E+01 -8.2925E+01 -8.2899E+01 -8.2872E+01 -8.2845E+01 -8.2816E+01 -8.2786E+01 -8.2754E+01 -8.2722E+01 -8.2689E+01 -8.2655E+01 -8.2621E+01 -8.2585E+01 -8.2548E+01 -8.2511E+01 -8.2473E+01 -8.2434E+01 -8.2395E+01 -8.2355E+01 -8.2315E+01 -8.2274E+01 -8.2233E+01 -8.2192E+01 -8.2151E+01 -8.2109E+01 -8.2068E+01 -8.2026E+01 -8.1984E+01 -8.1941E+01 -8.1898E+01 -8.1854E+01 -8.1810E+01 -8.1769E+01 -8.1736E+01 -8.1720E+01 -8.1736E+01 -8.1811E+01 -8.1979E+01 -8.2286E+01 -8.2784E+01 -8.3529E+01 -8.4574E+01 -8.5963E+01 -8.7726E+01 -8.9876E+01 -9.2407E+01 -9.5301E+01 -9.8529E+01 -1.0206E+02 -1.0587E+02 -1.0993E+02 -1.1423E+02 -1.1876E+02 -1.2352E+02 -1.2849E+02 -1.3363E+02 -1.3889E+02 -1.4421E+02 -1.4948E+02 -1.5460E+02 -1.5947E+02 -1.6398E+02 -1.6805E+02 -1.7161E+02 -1.7463E+02 -1.7709E+02 -1.7900E+02 -1.8036E+02 -1.8121E+02 -1.8156E+02 -1.8142E+02 -1.8081E+02 -1.7970E+02 -1.7811E+02 -1.7604E+02 -1.7349E+02 -1.7050E+02 -1.6711E+02 -1.6342E+02 -1.5951E+02 -1.5552E+02 -1.5156E+02 -1.4778E+02 -1.4428E+02 -1.4118E+02 -1.3853E+02 -1.3637E+02 -1.3472E+02 -1.3354E+02 -1.3280E+02 -1.3243E+02 -1.3235E+02 -1.3251E+02 -1.3283E+02 -1.3327E+02 -1.3377E+02 -1.3431E+02 -1.3486E+02 -1.3542E+02 -1.3597E+02 -1.3650E+02 -1.3702E+02 -1.3752E+02 -1.3800E+02 -1.3846E+02 -1.3891E+02 -1.3934E+02 -1.3976E+02 -1.4016E+02 -1.4054E+02 -1.4092E+02 -1.4128E+02 -1.4163E+02 -1.4197E+02 -1.4231E+02 -1.4263E+02 -1.4296E+02 -1.4327E+02 -1.4358E+02 -1.4389E+02 -1.4420E+02 -1.4450E+02 -1.4480E+02 -1.4510E+02 -1.4540E+02 -1.4570E+02 -1.4600E+02 -1.4630E+02 -1.4660E+02 -1.4690E+02 -1.4721E+02 -1.4752E+02 -1.4783E+02 -1.4815E+02 -1.4848E+02 -1.4881E+02 -1.4913E+02 -1.4947E+02 -1.4982E+02 -1.5018E+02
-8.4031E+01 -8.4041E+01 -8.4048E+01 -8.4054E+01 -8.4057E+01 -8.4060E+01 -8.4062E+01 -8.4062E+01 -8.4060E+01 -8.4056E+01 -8.4051E+01 -8.4044E+01 -8.4036E+01 -8.4027E+01 -8.4016E+01 -8.4005E+01 -8.3994E+01 -8.3981E+01 -8.3969E+01 -8.3956E+01 -8.3942E+01 -8.3929E+01 -8.3915E+01 -8.3900E+01 -8.3885E+01 -8.3870E+01 -8.3854E+01 -8.3837E+01 -8.3820E+01 -8.3803E+01 -8.3784E+01 -8.3766E+01 -8.3746E+01 -8.3726E+01 -8.3705E+01 -8.3684E+01 -8.3662E+01 -8.3639E+01 -8.3615E+01 -8.3590E+01 -8.3565E+01 -8.3538E+01 -8.3510E+01 -8.3481E+01 -8.3451E+01 -8.3420E+01 -8.3387E+01 -8.3354E+01 -8.3320E+01 -8.3284E+01 -8.3247E+01 -8.3210E+01 -8.3171E+01 -8.3131E+01 -8.3090E+01 -8.3048E+01 -8.3004E+01 -8.2960E+01 -8.2914E+01 -8.2867E+01 -8.2819E+01 -8.2770E+01 -8.2721E+01 -8.2670E+01 -8.2617E+01 -8.2564E+01 -8.2510E+01 -8.2454E+01 -8.2396E+01 -8.2336E+01 -8.2274E+01 -8.2210E+01 -8.2147E+01 -8.2087E+01 -8.2038E+01 -8.2014E+01 -8.2034E+01 -8.2131E+01 -8.2348E+01 -8.2736E+01 -8.3351E+01 -8.4249E+01 -8.5480E+01 -8.7080E+01 -8.9072E+01 -9.1459E+01 -9.4231E+01 -9.7365E+01 -1.0084E+02 -1.0461E+02 -1.0868E+02 -1.1302E+02 -1.1761E+02 -1.2244E+02 -1.2750E+02 -1.3275E+02 -1.3812E+02 -1.4356E+02 -1.4896E+02 -1.5422E+02 -1.5924E+02 -1.6392E+02 -1.6815E+02 -1.7190E+02 -1.7510E+02 -1.7776E+02 -1.7987E+02 -1.8145E+02 -1.8251E+02 -1.8309E+02 -1.8317E+02 -1.8278E+02 -1.8189E+02 -1.8052E+02 -1.7863E+02 -1.7625E+02 -1.7339E+02 -1.7008E+02 -1.6642E+02 -1.6248E+02 -1.5839E+02 -1.5428E+02 -1.5029E+02 -1.4655E+02 -1.4317E+02 -1.4025E+02 -1.3784E+02 -1.3595E+02 -1.3458E+02 -1.3368E+02 -1.3319E+02 -1.3304E+02 -1.3316E+02 -1.3347E+02 -1.3391E+02 -1.3443E+02 -1.3499E+02 -1.3557E+02 -1.3614E+02 -1.3671E+02 -1.3725E+02 -1.3777E+02 -1.3828E+02 -1.3876E+02 -1.3922E+02 -1.3967E+02 -1.4009E+02 -1.4050E+02 -1.4089E+02 -1.4126E+02 -1.4163E+02 -1.4198E+02 -1.4232E+02 -1.4266E+02 -1.4298E+02 -1.4330E+02 -1.4361E+02 -1.4392E+02 -1.4423E+02 -1.4453E+02 -1.4483E+02 -1.4512E+02 -1.4542E+02 -1.4571E+02 -1.4600E+02 -1.4629E+02 -1.4658E+02 -1.4688E+02 -1.4717E+02 -1.4746E+02 -1.4776E+02 -1.4806E+02 -1.4836E+02 -1.4867E+02 -1.4899E+02 -1.4931E+02 -1.4962E+02 -1.4995E+02 -1.5029E+02 -1.5064E+02
-8.4728E+01 -8.4737E+01 -8.4742E+01 -8.4745E+01 -8.4745E+01 -8.4746E+01 -8.4746E+01 -8.4743E+01 -8.4739E+01 -8.4734E+01 -8.4726E+01 -8.4717E+01 -8.4707E+01 -8.4696E+01 -8.4684E+01 -8.4672E+01 -8.4658E+01 -8.4644E+01 -8.4630E+01 -8.4615E+01 -8.4600E+01 -8.4585E+01 -8.4569E+01 -8.4553E+01 -8.4536E+01 -8.4519E+01 -8.4501E+01 -8.4483E+01 -8.4464E+01 -8.4444E+01 -8.4424E+01 -8.4403E+01 -8.4382E+01 -8.4360E+01 -8.4337E+01 -8.4313E+01 -8.4289E+01 -8.4264E+01 -8.4238E+01 -8.4211E+01 -8.4183E+01 -8.4154E+01 -8.4125E+01 -8.4093E+01 -8.4061E+01 -8.4028E+01 -8.3993E+01 -8.3958E+01 -8.3921E+01 -8.3883E+01 -8.3844E+01 -8.3804E+01 -8.3762E+01 -8.3719E+01 -8.3674E+01 -8.3628E+01 -8.3580E+01 -8.3531E+01 -8.3480E+01 -8.3427E+01 -8.3372E+01 -8.3316E+01 -8.3258E+01 -8.3198E+01 -8.3136E+01 -8.3072E+01 -8.3005E+01 -8.2935E+01 -8.2862E+01 -8.2786E+01 -8.2707E+01 -8.2624E+01 -8.2539E+01 -8.2455E+01 -8.2377E+01 -8.2315E+01 -8.2287E+01 -8.2322E+01 -8.2460E+01 -8.2749E+01 -8.3247E+01 -8.4011E+01 -8.5096E+01 -8.6547E+01 -8.8392E+01 -9.0645E+01 -9.3304E+01 -9.6355E+01 -9.9774E+01 -1.0354E+02 -1.0762E+02 -1.1200E+02 -1.1667E+02 -1.2159E+02 -1.2675E+02 -1.3210E+02 -1.3759E+02 -1.4314E+02 -1.4866E+02 -1.5404E+02 -1.5918E+02 -1.6398E+02 -1.6836E+02 -1.7225E+02 -1.7561E+02 -1.7843E+02 -1.8071E+02 -1.8247E+02 -1.8372E+02 -1.8449E+02 -1.8478E+02 -1.8459E+02 -1.8391E+02 -1.8273E+02 -1.8103E+02 -1.7880E+02 -1.7607E+02 -1.7286E+02 -1.6923E+02 -1.6527E+02 -1.6111E+02 -1.5687E+02 -1.5270E+02 -1.4874E+02 -1.4513E+02 -1.4196E+02 -1.3930E+02 -1.3720E+02 -1.3564E+02 -1.3459E+02 -1.3399E+02 -1.3378E+02 -1.3386E+02 -1.3416E+02 -1.3461E+02 -1.3515E+02 -1.3573E+02 -1.3633E+02 -1.3692E+02 -1.3750E+02 -1.3805E+02 -1.3858E+02 -1.3908E+02 -1.3956E+02 -1.4002E+02 -1.4045E+02 -1.4087E+02 -1.4126E+02 -1.4164E+02 -1.4201E+02 -1.4236E+02 -1.4270E+02 -1.4303E+02 -1.4335E+02 -1.4367E+02 -1.4398E+02 -1.4428E+02 -1.4458E+02 -1.4487E+02 -1.4517E+02 -1.4546E+02 -1.4574E+02 -1.4603E+02 -1.4632E+02 -1.4660E+02 -1.4688E+02 -1.4717E+02 -1.4745E+02 -1.4774E+02 -1.4802E+02 -1.4831E+02 -1.4860E+02 -1.4890E+02 -1.4920E+02 -1.4950E+02 -1.4981E+02 -1.5012E+02 -1.5043E+02 -1.5076E+02 -1.5110E+02
-8.5426E+01 -8.5432E+01 -8.5435E+01 -8.5435E+01 -8.5433E+01 -8.5432E+01 -8.5429E+01 -8.5425E+01 -8.5419E+01 -8.5411E+01 -8.5402E+01 -8.5391E+01 -8.5380E+01 -8.5367E+01 -8.5353E+01 -8.5339E+01 -8.5324E+01 -8.5309E+01 -8.5293E+01 -8.5277E+01 -8.5260E+01 -8.5243E+01 -8.5226E+01 -8.5208E+01 -8.5189E+01 -8.5170E+01 -8.5151E+01 -8.5131E+01 -8.5110E+01 -8.5088E+01 -8.5066E+01 -8.5043E+01 -8.5020E+01 -8.4995E+01 -8.4971E+01 -8.4945E+01 -8.4919E+01 -8.4891E+01 -8.4863E+01 -8.4834E+01 -8.4805E+01 -8.4774E+01 -8.4742E+01 -8.4709E+01 -8.4674E+01 -8.4639E+01 -8.4602E+01 -8.4565E+01 -8.4526E+01 -8.4486E+01 -8.4444E+01 -8.4401E+01 -8.4357E+01 -8.4311E+01 -8.4263E+01 -8.4213E+01 -8.4161E+01 -8.4107E+01 -8.4052E+01 -8.3993E+01 -8.3933E+01 -8.3870E+01 -8.3804E+01 -8.3736E+01 -8.3664E+01 -8.3590E+01 -8.3511E+01 -8.3429E+01 -8.3342E+01 -8.3250E+01 -8.3154E+01 -8.3053E+01 -8.2948E+01 -8.2841E+01 -8.2735E+01 -8.2640E+01 -8.2569E+01 -8.2549E+01 -8.2616E+01 -8.2818E+01 -8.3210E+01 -8.3853E+01 -8.4804E+01 -8.6115E+01 -8.7823E+01 -8.9951E+01 -9.2506E+01 -9.5481E+01 -9.8858E+01 -1.0262E+02 -1.0673E+02 -1.1117E+02 -1.1592E+02 -1.2095E+02 -1.2622E+02 -1.3168E+02 -1.3728E+02 -1.4294E+02 -1.4857E+02 -1.5405E+02 -1.5930E+02 -1.6420E+02 -1.6869E+02 -1.7269E+02 -1.7617E+02 -1.7912E+02 -1.8154E+02 -1.8345E+02 -1.8486E+02 -1.8579E+02 -1.8625E+02 -1.8624E+02 -1.8574E+02 -1.8473E+02 -1.8320E+02 -1.8112E+02 -1.7851E+02 -1.7539E+02 -1.7180E+02 -1.6785E+02 -1.6363E+02 -1.5929E+02 -1.5497E+02 -1.5083E+02 -1.4701E+02 -1.4363E+02 -1.4076E+02 -1.3846E+02 -1.3673E+02 -1.3554E+02 -1.3485E+02 -1.3457E+02 -1.3463E+02 -1.3492E+02 -1.3538E+02 -1.3593E+02 -1.3654E+02 -1.3716E+02 -1.3776E+02 -1.3835E+02 -1.3890E+02 -1.3943E+02 -1.3993E+02 -1.4040E+02 -1.4085E+02 -1.4127E+02 -1.4167E+02 -1.4205E+02 -1.4242E+02 -1.4277E+02 -1.4310E+02 -1.4343E+02 -1.4375E+02 -1.4406E+02 -1.4436E+02 -1.4466E+02 -1.4495E+02 -1.4524E+02 -1.4552E+02 -1.4581E+02 -1.4609E+02 -1.4637E+02 -1.4664E+02 -1.4692E+02 -1.4720E+02 -1.4747E+02 -1.4775E+02 -1.4803E+02 -1.4830E+02 -1.4858E+02 -1.4886E+02 -1.4914E+02 -1.4943E+02 -1.4972E+02 -1.5001E+02 -1.5032E+02 -1.5061E+02 -1.5092E+02 -1.5123E+02 -1.5157E+02
-8.6123E+01 -8.6127E+01 -8.6127E+01 -8.6125E+01 -8.6121E+01 -8.6118E+01 -8.6113E+01 -8.6106E+01 -8.6098E+01 -8.6089E+01 -8.6078E+01 -8.6066E+01 -8.6052E+01 -8.6038E+01 -8.6023E+01 -8.6008E+01 -8.5991E+01 -8.5975E+01 -8.5957E+01 -8.5940E+01 -8.5922E+01 -8.5903E+01 -8.5884E+01 -8.5864E+01 -8.5844E+01 -8.5823E+01 -8.5802E+01 -8.5780E+01 -8.5757E+01 -8.5734E+01 -8.5710E+01 -8.5685E+01 -8.5659E+01 -8.5633E+01 -8.5606E+01 -8.5578E+01 -8.5550E+01 -8.5520E+01 -8.5490E+01 -8.5459E+01 -8.5427E+01 -8.5394E+01 -8.5360E+01 -8.5325E+01 -8.5289E+01 -8.5252E+01 -8.5213E+01 -8.5174E+01 -8.5133E+01 -8.5090E+01 -8.5047E+01 -8.5002E+01 -8.4955E+01 -8.4906E+01 -8.4855E+01 -8.4802E+01 -8.4746E+01 -8.4689E+01 -8.4628E+01 -8.4565E+01 -8.4499E+01 -8.4430E+01 -8.4358E+01 -8.4282E+01 -8.4202E+01 -8.4118E+01 -8.4029E+01 -8.3935E+01 -8.3835E+01 -8.3729E+01 -8.3616E+01 -8.3498E+01 -8.3373E+01 -8.3244E+01 -8.3114E+01 -8.2988E+01 -8.2879E+01 -8.2811E+01 -8.2815E+01 -8.2937E+01 -8.3233E+01 -8.3763E+01 -8.4590E+01 -8.5769E+01 -8.7348E+01 -8.9357E+01 -9.1814E+01 -9.4720E+01 -9.8063E+01 -1.0182E+02 -1.0598E+02 -1.1049E+02 -1.1534E+02 -1.2048E+02 -1.2587E+02 -1.3146E+02 -1.3718E+02 -1.4295E+02 -1.4868E+02 -1.5426E+02 -1.5959E+02 -1.6458E+02 -1.6915E+02 -1.7324E+02 -1.7681E+02 -1.7986E+02 -1.8238E+02 -1.8440E+02 -1.8594E+02 -1.8700E+02 -1.8761E+02 -1.8774E+02 -1.8739E+02 -1.8653E+02 -1.8514E+02 -1.8320E+02 -1.8069E+02 -1.7765E+02 -1.7412E+02 -1.7017E+02 -1.6592E+02 -1.6150E+02 -1.5707E+02 -1.5279E+02 -1.4880E+02 -1.4523E+02 -1.4218E+02 -1.3972E+02 -1.3784E+02 -1.3655E+02 -1.3577E+02 -1.3544E+02 -1.3546E+02 -1.3575E+02 -1.3622E+02 -1.3679E+02 -1.3741E+02 -1.3804E+02 -1.3866E+02 -1.3925E+02 -1.3980E+02 -1.4033E+02 -1.4082E+02 -1.4127E+02 -1.4170E+02 -1.4211E+02 -1.4249E+02 -1.4286E+02 -1.4321E+02 -1.4354E+02 -1.4386E+02 -1.4417E+02 -1.4447E+02 -1.4477E+02 -1.4506E+02 -1.4534E+02 -1.4562E+02 -1.4590E+02 -1.4617E+02 -1.4644E+02 -1.4672E+02 -1.4699E+02 -1.4725E+02 -1.4752E+02 -1.4779E+02 -1.4806E+02 -1.4833E+02 -1.4860E+02 -1.4887E+02 -1.4914E+02 -1.4941E+02 -1.4968E+02 -1.4996E+02 -1.5024E+02 -1.5053E+02 -1.5082E+02 -1.5111E+02 -1.5141E+02 -1.5171E+02 -1.5203E+02
-8.6819E+01 -8.6821E+01 -8.6819E+01 -8.6815E+01 -8.6809E+01 -8.6803E+01 -8.6796E+01 -8.6788E+01 -8.6778E+01 -8.6766E+01 -8.6754E+01 -8.6740E+01 -8.6726E+01 -8.6710E+01 -8.6694E+01 -8.6677E+01 -8.6660E+01 -8.6641E+01 -8.6623E+01 -8.6604E+01 -8.6584E+01 -8.6564E+01 -8.6543E+01 -8.6522E+01 -8.6500E+01 -8.6477E+01 -8.6454E+01 -8.6430E+01 -8.6406E+01 -8.6380E+01 -8.6354E+01 -8.6327E+01 -8.6300E+01 -8.6271E+01 -8.6242E+01 -8.6212E+01 -8.6181E+01 -8.6150E+01 -8.6118E+01 -8.6084E+01 -8.6050E+01 -8.6015E+01 -8.5979E+01 -8.5942E+01 -8.5904E+01 -8.5865E+01 -8.5825E+01 -8.5783E+01 -8.5740E+01 -8.5696E+01 -8.5650E+01 -8.5603E+01 -8.5554E+01 -8.5502E+01 -8.5449E+01 -8.5393E+01 -8.5334E+01 -8.5273E+01 -8.5209E+01 -8.5142E+01 -8.5071E+01 -8.4997E+01 -8.4919E+01 -8.4836E+01 -8.4749E+01 -8.4656E+01 -8.4557E+01 -8.4452E+01 -8.4340E+01 -8.4220E+01 -8.4093E+01 -8.3958E+01 -8.3816E+01 -8.3667E+01 -8.3513E+01 -8.3360E+01 -8.3216E+01 -8.3103E+01 -8.3050E+01 -8.3099E+01 -8.3306E+01 -8.3731E+01 -8.4439E+01 -8.5493E+01 -8.6947E+01 -8.8842E+01 -9.1205E+01 -9.4046E+01 -9.7359E+01 -1.0113E+02 -1.0533E+02 -1.0992E+02 -1.1488E+02 -1.2014E+02 -1.2567E+02 -1.3139E+02 -1.3724E+02 -1.4313E+02 -1.4896E+02 -1.5463E+02 -1.6005E+02 -1.6511E+02 -1.6975E+02 -1.7390E+02 -1.7754E+02 -1.8066E+02 -1.8326E+02 -1.8536E+02 -1.8699E+02 -1.8815E+02 -1.8886E+02 -1.8911E+02 -1.8888E+02 -1.8814E+02 -1.8686E+02 -1.8502E+02 -1.8261E+02 -1.7964E+02 -1.7615E+02 -1.7222E+02 -1.6795E+02 -1.6348E+02 -1.5897E+02 -1.5458E+02 -1.5047E+02 -1.4677E+02 -1.4359E+02 -1.4099E+02 -1.3900E+02 -1.3761E+02 -1.3677E+02 -1.3639E+02 -1.3639E+02 -1.3667E+02 -1.3714E+02 -1.3772E+02 -1.3835E+02 -1.3899E+02 -1.3961E+02 -1.4020E+02 -1.4075E+02 -1.4126E+02 -1.4173E+02 -1.4217E+02 -1.4259E+02 -1.4297E+02 -1.4334E+02 -1.4368E+02 -1.4401E+02 -1.4432E+02 -1.4462E+02 -1.4492E+02 -1.4520E+02 -1.4548E+02 -1.4575E+02 -1.4602E+02 -1.4629E+02 -1.4655E+02 -1.4682E+02 -1.4708E+02 -1.4734E+02 -1.4760E+02 -1.4786E+02 -1.4812E+02 -1.4838E+02 -1.4864E+02 -1.4890E+02 -1.4916E+02 -1.4942E+02 -1.4968E+02 -1.4995E+02 -1.5022E+02 -1.5049E+02 -1.5076E+02 -1.5104E+02 -1.5133E+02 -1.5161E+02 -1.5189E+02 -1.5219E+02 -1.5249E+02
-8.7514E+01 -8.7514E+01 -8.7510E+01 -8.7504E+01 -8.7496E+01 -8.7489E+01 -8.7480E+01 -8.7469E+01 -8.7457E+01 -8.7445E+01 -8.7431E+01 -8.7416E+01 -8.7400E+01 -8.7383E+01 -8.7365E+01 -8.7347E+01 -8.7329E+01 -8.7309E+01 -8.7289E+01 -8.7269E+01 -8.7247E+01 -8.7226E+01 -8.7203E+01 -8.7180E+01 -8.7156E+01 -8.7132E+01 -8.7107E+01 -8.7081E+01 -8.7054E+01 -8.7027E+01 -8.6998E+01 -8.6970E+01 -8.6940E+01 -8.6909E+01 -8.6878E+01 -8.6846E+01 -8.6813E+01 -8.6779E+01 -8.6744E+01 -8.6709E+01 -8.6673E+01 -8.6636E+01 -8.6598E+01 -8.6559E+01 -8.6519E+01 -8.6478E+01 -8.6435E+01 -8.6392E+01 -8.6348E+01 -8.6302E+01 -8.6254E+01 -8.6205E+01 -8.6153E+01 -8.6100E+01 -8.6044E+01 -8.5985E+01 -8.5924E+01 -8.5860E+01 -8.5793E+01 -8.5722E+01 -8.5647E+01 -8.5569E+01 -8.5485E+01 -8.5397E+01 -8.5303E+01 -8.5203E+01 -8.5096E+01 -8.4981E+01 -8.4858E+01 -8.4726E+01 -8.4585E+01 -8.4435E+01 -8.4276E+01 -8.4109E+01 -8.3933E+01 -8.3754E+01 -8.3579E+01 -8.3425E+01 -8.3318E+01 -8.3300E+01 -8.3422E+01 -8.3746E+01 -8.4341E+01 -8.5273E+01 -8.6605E+01 -8.8388E+01 -9.0659E+01 -9.3437E+01 -9.6724E+01 -1.0051E+02 -1.0476E+02 -1.0944E+02 -1.1451E+02 -1.1991E+02 -1.2558E+02 -1.3145E+02 -1.3744E+02 -1.4345E+02 -1.4939E+02 -1.5516E+02 -1.6066E+02 -1.6579E+02 -1.7048E+02 -1.7469E+02 -1.7837E+02 -1.8153E+02 -1.8418E+02 -1.8633E+02 -1.8801E+02 -1.8924E+02 -1.9003E+02 -1.9036E+02 -1.9021E+02 -1.8956E+02 -1.8837E+02 -1.8661E+02 -1.8427E+02 -1.8136E+02 -1.7791E+02 -1.7400E+02 -1.6973E+02 -1.6524E+02 -1.6069E+02 -1.5623E+02 -1.5204E+02 -1.4825E+02 -1.4498E+02 -1.4229E+02 -1.4022E+02 -1.3877E+02 -1.3787E+02 -1.3745E+02 -1.3743E+02 -1.3770E+02 -1.3817E+02 -1.3875E+02 -1.3938E+02 -1.4002E+02 -1.4063E+02 -1.4121E+02 -1.4174E+02 -1.4223E+02 -1.4268E+02 -1.4310E+02 -1.4349E+02 -1.4385E+02 -1.4419E+02 -1.4451E+02 -1.4482E+02 -1.4511E+02 -1.4539E+02 -1.4567E+02 -1.4593E+02 -1.4619E+02 -1.4645E+02 -1.4670E+02 -1.4696E+02 -1.4721E+02 -1.4746E+02 -1.4770E+02 -1.4795E+02 -1.4820E+02 -1.4845E+02 -1.4870E+02 -1.4895E+02 -1.4920E+02 -1.4946E+02 -1.4971E+02 -1.4997E+02 -1.5022E+02 -1.5048E+02 -1.5074E+02 -1.5101E+02 -1.5128E+02 -1.5155E+02 -1.5182E+02 -1.5210E+02 -1.5238E+02 -1.5266E+02 -1.5296E+02
-8.8209E+01 -8.8207E+01 -8.8201E+01 -8.8193E+01 -8.8183E+01 -8.8174E+01 -8.8163E+01 -8.8151E+01 -8.8138E+01 -8.8123E+01 -8.8108E+01 -8.8091E+01 -8.8074E+01 -8.8056E+01 -8.8038E+01 -8.8018E+01 -8.7998E+01 -8.7977E+01 -8.7956E+01 -8.7934E+01 -8.7911E+01 -8.7887E+01 -8.7863E+01 -8.7838E+01 -8.7812E+01 -8.7786E+01 -8.7759E+01 -8.7731E+01 -8.7702E+01 -8.7672E+01 -8.7642E+01 -8.7611E+01 -8.7579E+01 -8.7546E+01 -8.7512E+01 -8.7478E+01 -8.7442E+01 -8.7406E+01 -8.7370E+01 -8.7332E+01 -8.7294E+01 -8.7254E+01 -8.7214E+01 -8.7173E+01 -8.7132E+01 -8.7089E+01 -8.7045E+01 -8.7000E+01 -8.6954E+01 -8.6906E+01 -8.6856E+01 -8.6805E+01 -8.6752E+01 -8.6697E+01 -8.6639E+01 -8.6578E+01 -8.6515E+01 -8.6448E+01 -8.6378E+01 -8.6305E+01 -8.6227E+01 -8.6145E+01 -8.6057E+01 -8.5964E+01 -8.5864E+01 -8.5758E+01 -8.5643E+01 -8.5520E+01 -8.5387E+01 -8.5245E+01 -8.5092E+01 -8.4929E+01 -8.4754E+01 -8.4570E+01 -8.4375E+01 -8.4172E+01 -8.3967E+01 -8.3775E+01 -8.3618E+01 -8.3535E+01 -8.3576E+01 -8.3803E+01 -8.4287E+01 -8.5100E+01 -8.6313E+01 -8.7986E+01 -9.0166E+01 -9.2882E+01 -9.6144E+01 -9.9942E+01 -1.0425E+02 -1.0902E+02 -1.1422E+02 -1.1976E+02 -1.2558E+02 -1.3160E+02 -1.3774E+02 -1.4389E+02 -1.4994E+02 -1.5581E+02 -1.6139E+02 -1.6659E+02 -1.7133E+02 -1.7558E+02 -1.7929E+02 -1.8248E+02 -1.8515E+02 -1.8733E+02 -1.8904E+02 -1.9031E+02 -1.9113E+02 -1.9151E+02 -1.9142E+02 -1.9083E+02 -1.8969E+02 -1.8799E+02 -1.8570E+02 -1.8283E+02 -1.7942E+02 -1.7554E+02 -1.7128E+02 -1.6680E+02 -1.6223E+02 -1.5776E+02 -1.5354E+02 -1.4971E+02 -1.4639E+02 -1.4366E+02 -1.4154E+02 -1.4004E+02 -1.3910E+02 -1.3865E+02 -1.3860E+02 -1.3885E+02 -1.3930E+02 -1.3987E+02 -1.4049E+02 -1.4111E+02 -1.4171E+02 -1.4227E+02 -1.4277E+02 -1.4324E+02 -1.4366E+02 -1.4405E+02 -1.4441E+02 -1.4475E+02 -1.4506E+02 -1.4535E+02 -1.4563E+02 -1.4590E+02 -1.4616E+02 -1.4641E+02 -1.4666E+02 -1.4690E+02 -1.4714E+02 -1.4738E+02 -1.4762E+02 -1.4785E+02 -1.4809E+02 -1.4832E+02 -1.4856E+02 -1.4880E+02 -1.4903E+02 -1.4927E+02 -1.4951E+02 -1.4976E+02 -1.5000E+02 -1.5025E+02 -1.5050E+02 -1.5075E+02 -1.5100E+02 -1.5126E+02 -1.5152E+02 -1.5178E+02 -1.5204E+02 -1.5231E+02 -1.5258E+02 -1.5285E+02 -1.5313E+02 -1.5342E+02
-8.8903E+01 -8.8899E+01 -8.8891E+01 -8.8881E+01 -8.8870E+01 -8.8859E+01 -8.8846E+01 -8.8833E+01 -8.8818E+01 -8.8802E+01 -8.8786E+01 -8.8768E+01 -8.8750E+01 -8.8730E+01 -8.8710E+01 -8.8690E+01 -8.8668E+01 -8.8646E+01 -8.8623E+01 -8.8599E+01 -8.8574E+01 -8.8549E+01 -8.8523E+01 -8.8496E+01 -8.8468E+01 -8.8439E+01 -8.8410E+01 -8.8379E+01 -8.8348E+01 -8.8316E+01 -8.8284E+01 -8.8250E+01 -8.8216E+01 -8.8180E+01 -8.8144E+01 -8.8107E+01 -8.8070E+01 -8.8031E+01 -8.7992E+01 -8.7952E+01 -8.7912E+01 -8.7871E+01 -8.7829E+01 -8.7786E+01 -8.7742E+01 -8.7698E+01 -8.7652E+01 -8.7605E+01 -8.7557E+01 -8.7508E+01 -8.7457E+01 -8.7404E+01 -8.7349E+01 -8.7292E+01 -8.7233E+01 -8.7170E+01 -8.7105E+01 -8.7037E+01 -8.6965E+01 -8.6889E+01 -8.6809E+01 -8.6723E+01 -8.6632E+01 -8.6535E+01 -8.6431E+01 -8.6319E+01 -8.6199E+01 -8.6069E+01 -8.5928E+01 -8.5776E+01 -8.5613E+01 -8.5438E+01 -8.5250E+01 -8.5050E+01 -8.4837E+01 -8.4613E+01 -8.4381E+01 -8.4153E+01 -8.3949E+01 -8.3805E+01 -8.3768E+01 -8.3901E+01 -8.4277E+01 -8.4974E+01 -8.6070E+01 -8.7634E+01 -8.9725E+01 -9.2381E+01 -9.5618E+01 -9.9431E+01 -1.0379E+02 -1.0866E+02 -1.1398E+02 -1.1966E+02 -1.2564E+02 -1.3182E+02 -1.3811E+02 -1.4440E+02 -1.5058E+02 -1.5656E+02 -1.6222E+02 -1.6749E+02 -1.7228E+02 -1.7656E+02 -1.8030E+02 -1.8350E+02 -1.8617E+02 -1.8836E+02 -1.9007E+02 -1.9135E+02 -1.9219E+02 -1.9259E+02 -1.9253E+02 -1.9196E+02 -1.9086E+02 -1.8920E+02 -1.8694E+02 -1.8410E+02 -1.8073E+02 -1.7687E+02 -1.7265E+02 -1.6820E+02 -1.6367E+02 -1.5921E+02 -1.5501E+02 -1.5119E+02 -1.4787E+02 -1.4512E+02 -1.4299E+02 -1.4146E+02 -1.4049E+02 -1.4001E+02 -1.3993E+02 -1.4015E+02 -1.4057E+02 -1.4111E+02 -1.4170E+02 -1.4229E+02 -1.4286E+02 -1.4338E+02 -1.4385E+02 -1.4428E+02 -1.4467E+02 -1.4503E+02 -1.4535E+02 -1.4565E+02 -1.4593E+02 -1.4620E+02 -1.4645E+02 -1.4670E+02 -1.4693E+02 -1.4716E+02 -1.4739E+02 -1.4761E+02 -1.4783E+02 -1.4805E+02 -1.4827E+02 -1.4849E+02 -1.4871E+02 -1.4893E+02 -1.4915E+02 -1.4938E+02 -1.4960E+02 -1.4983E+02 -1.5006E+02 -1.5030E+02 -1.5053E+02 -1.5077E+02 -1.5101E+02 -1.5126E+02 -1.5151E+02 -1.5176E+02 -1.5201E+02 -1.5227E+02 -1.5253E+02 -1.5279E+02 -1.5305E+02 -1.5332E+02 -1.5359E+02 -1.5387E+02
-8.9597E+01 -8.9591E+01 -8.9582E+01 -8.9570E+01 -8.9557E+01 -8.9544E+01 -8.9530E+01 -8.9515E+01 -8.9499E+01 -8.9482E+01 -8.9464E+01 -8.9445E+01 -8.9425E+01 -8.9405E+01 -8.9383E+01 -8.9361E+01 -8.9338E+01 -8.9314E+01 -8.9290E+01 -8.9264E+01 -8.9237E+01 -8.9210E+01 -8.9181E+01 -8.9152E+01 -8.9122E+01 -8.9091E+01 -8.9059E+01 -8.9026E+01 -8.8992E+01 -8.8958E+01 -8.8923E+01 -8.8887E+01 -8.8850E+01 -8.8812E+01 -8.8773E+01 -8.8734E+01 -8.8694E+01 -8.8653E+01 -8.8612E+01 -8.8570E+01 -8.8527E+01 -8.8484E+01 -8.8440E+01 -8.8395E+01 -8.8350E+01 -8.8304E+01 -8.8256E+01 -8.8208E+01 -8.8159E+01 -8.8108E+01 -8.8055E+01 -8.8001E+01 -8.7945E+01 -8.7886E+01 -8.7825E+01 -8.7761E+01 -8.7695E+01 -8.7625E+01 -8.7551E+01 -8.7474E+01 -8.7391E+01 -8.7304E+01 -8.7210E+01 -8.7110E+01 -8.7003E+01 -8.6887E+01 -8.6761E+01 -8.6625E+01 -8.6478E+01 -8.6319E+01 -8.6147E+01 -8.5962E+01 -8.5763E+01 -8.5550E+01 -8.5321E+01 -8.5077E+01 -8.4820E+01 -8.4559E+01 -8.4311E+01 -8.4109E+01 -8.3999E+01 -8.4042E+01 -8.4315E+01 -8.4900E+01 -8.5883E+01 -8.7344E+01 -8.9348E+01 -9.1945E+01 -9.5158E+01 -9.8986E+01 -1.0340E+02 -1.0836E+02 -1.1380E+02 -1.1963E+02 -1.2576E+02 -1.3210E+02 -1.3854E+02 -1.4498E+02 -1.5129E+02 -1.5737E+02 -1.6313E+02 -1.6846E+02 -1.7331E+02 -1.7762E+02 -1.8137E+02 -1.8457E+02 -1.8724E+02 -1.8941E+02 -1.9112E+02 -1.9238E+02 -1.9322E+02 -1.9362E+02 -1.9356E+02 -1.9300E+02 -1.9192E+02 -1.9027E+02 -1.8803E+02 -1.8522E+02 -1.8188E+02 -1.7807E+02 -1.7391E+02 -1.6951E+02 -1.6504E+02 -1.6066E+02 -1.5651E+02 -1.5274E+02 -1.4946E+02 -1.4673E+02 -1.4460E+02 -1.4306E+02 -1.4207E+02 -1.4156E+02 -1.4144E+02 -1.4161E+02 -1.4198E+02 -1.4247E+02 -1.4301E+02 -1.4356E+02 -1.4407E+02 -1.4455E+02 -1.4498E+02 -1.4536E+02 -1.4571E+02 -1.4602E+02 -1.4631E+02 -1.4657E+02 -1.4682E+02 -1.4705E+02 -1.4728E+02 -1.4749E+02 -1.4770E+02 -1.4791E+02 -1.4811E+02 -1.4831E+02 -1.4851E+02 -1.4871E+02 -1.4891E+02 -1.4911E+02 -1.4932E+02 -1.4953E+02 -1.4973E+02 -1.4995E+02 -1.5016E+02 -1.5038E+02 -1.5060E+02 -1.5082E+02 -1.5105E+02 -1.5128E+02 -1.5152E+02 -1.5175E+02 -1.5199E+02 -1.5224E+02 -1.5249E+02 -1.5274E+02 -1.5299E+02 -1.5325E+02 -1.5351E+02 -1.5377E+02 -1.5404E+02 -1.5431E+02
-9.0291E+01 -9.0284E+01 -9.0272E+01 -9.0259E+01 -9.0244E+01 -9.0230E+01 -9.0215E+01 -9.0198E+01 -9.0181E+01 -9.0162E+01 -9.0143E+01 -9.0122E+01 -9.0101E+01 -9.0079E+01 -9.0056E+01 -9.0033E+01 -9.0008E+01 -8.9982E+01 -8.9956E+01 -8.9928E+01 -8.9899E+01 -8.9870E+01 -8.9839E+01 -8.9807E+01 -8.9774E+01 -8.9740E+01 -8.9706E+01 -8.9670E+01 -8.9634E+01 -8.9597E+01 -8.9559E+01 -8.9520E+01 -8.9480E+01 -8.9440E+01 -8.9399E+01 -8.9357E+01 -8.9314E+01 -8.9271E+01 -8.9227E+01 -8.9183E+01 -8.9139E+01 -8.9093E+01 -8.9047E+01 -8.9001E+01 -8.8954E+01 -8.8906E+01 -8.8857E+01 -8.8807E+01 -8.8756E+01 -8.8704E+01 -8.8650E+01 -8.8594E+01 -8.8537E+01 -8.8477E+01 -8.8415E+01 -8.8350E+01 -8.8282E+01 -8.8211E+01 -8.8137E+01 -8.8058E+01 -8.7974E+01 -8.7885E+01 -8.7790E+01 -8.7688E+01 -8.7578E+01 -8.7459E+01 -8.7330E+01 -8.7190E+01 -8.7038E+01 -8.6873E+01 -8.6694E+01 -8.6502E+01 -8.6293E+01 -8.6069E+01 -8.5827E+01 -8.5566E+01 -8.5286E+01 -8.4995E+01 -8.4707E+01 -8.4451E+01 -8.4272E+01 -8.4232E+01 -8.4409E+01 -8.4891E+01 -8.5769E+01 -8.7132E+01 -8.9057E+01 -9.1600E+01 -9.4791E+01 -9.8634E+01 -1.0310E+02 -1.0815E+02 -1.1370E+02 -1.1966E+02 -1.2595E+02 -1.3244E+02 -1.3903E+02 -1.4561E+02 -1.5205E+02 -1.5824E+02 -1.6409E+02 -1.6949E+02 -1.7439E+02 -1.7872E+02 -1.8249E+02 -1.8568E+02 -1.8834E+02 -1.9049E+02 -1.9217E+02 -1.9341E+02 -1.9423E+02 -1.9461E+02 -1.9454E+02 -1.9398E+02 -1.9289E+02 -1.9124E+02 -1.8903E+02 -1.8625E+02 -1.8295E+02 -1.7920E+02 -1.7511E+02 -1.7081E+02 -1.6644E+02 -1.6216E+02 -1.5811E+02 -1.5443E+02 -1.5122E+02 -1.4854E+02 -1.4643E+02 -1.4489E+02 -1.4387E+02 -1.4332E+02 -1.4314E+02 -1.4324E+02 -1.4355E+02 -1.4396E+02 -1.4443E+02 -1.4491E+02 -1.4536E+02 -1.4577E+02 -1.4614E+02 -1.4647E+02 -1.4677E+02 -1.4703E+02 -1.4728E+02 -1.4750E+02 -1.4771E+02 -1.4791E+02 -1.4810E+02 -1.4829E+02 -1.4847E+02 -1.4865E+02 -1.4882E+02 -1.4900E+02 -1.4918E+02 -1.4936E+02 -1.4954E+02 -1.4973E+02 -1.4992E+02 -1.5011E+02 -1.5030E+02 -1.5050E+02 -1.5070E+02 -1.5091E+02 -1.5112E+02 -1.5133E+02 -1.5155E+02 -1.5177E+02 -1.5200E+02 -1.5223E+02 -1.5246E+02 -1.5270E+02 -1.5295E+02 -1.5319E+02 -1.5344E+02 -1.5370E+02 -1.5395E+02 -1.5421E+02 -1.5447E+02 -1.5473E+02
-9.0986E+01 -9.0977E+01 -9.0964E+01 -9.0949E+01 -9.0932E+01 -9.0917E+01 -9.0900E+01 -9.0881E+01 -9.0863E+01 -9.0843E+01 -9.0822E+01 -9.0800E+01 -9.0777E+01 -9.0754E+01 -9.0729E+01 -9.0704E+01 -9.0677E+01 -9.0650E+01 -9.0621E+01 -9.0591E+01 -9.0560E+01 -9.0528E+01 -9.0494E+01 -9.0460E+01 -9.0424E+01 -9.0387E+01 -9.0350E+01 -9.0311E+01 -9.0272E+01 -9.0232E+01 -9.0191E+01 -9.0149E+01 -9.0107E+01 -9.0064E+01 -9.0020E+01 -8.9975E+01 -8.9930E+01 -8.9885E+01 -8.9839E+01 -8.9793E+01 -8.9746E+01 -8.9699E+01 -8.9651E+01 -8.9603E+01 -8.9554E+01 -8.9504E+01 -8.9454E+01 -8.9403E+01 -8.9350E+01 -8.9296E+01 -8.9241E+01 -8.9184E+01 -8.9126E+01 -8.9065E+01 -8.9002E+01 -8.8936E+01 -8.8868E+01 -8.8796E+01 -8.8720E+01 -8.8641E+01 -8.8556E+01 -8.8466E+01 -8.8370E+01 -8.8266E+01 -8.8155E+01 -8.8034E+01 -8.7902E+01 -8.7760E+01 -8.7605E+01 -8.7436E+01 -8.7253E+01 -8.7054E+01 -8.6839E+01 -8.6606E+01 -8.6353E+01 -8.6077E+01 -8.5779E+01 -8.5461E+01 -8.5137E+01 -8.4834E+01 -8.4594E+01 -8.4480E+01 -8.4571E+01 -8.4960E+01 -8.5745E+01 -8.7023E+01 -8.8878E+01 -9.1375E+01 -9.4550E+01 -9.8408E+01 -1.0293E+02 -1.0805E+02 -1.1371E+02 -1.1980E+02 -1.2622E+02 -1.3286E+02 -1.3959E+02 -1.4630E+02 -1.5286E+02 -1.5916E+02 -1.6509E+02 -1.7056E+02 -1.7550E+02 -1.7986E+02 -1.8363E+02 -1.8681E+02 -1.8945E+02 -1.9157E+02 -1.9322E+02 -1.9443E+02 -1.9522E+02 -1.9558E+02 -1.9548E+02 -1.9491E+02 -1.9382E+02 -1.9218E+02 -1.8998E+02 -1.8724E+02 -1.8400E+02 -1.8034E+02 -1.7635E+02 -1.7217E+02 -1.6794E+02 -1.6379E+02 -1.5988E+02 -1.5631E+02 -1.5319E+02 -1.5057E+02 -1.4850E+02 -1.4695E+02 -1.4590E+02 -1.4529E+02 -1.4504E+02 -1.4506E+02 -1.4526E+02 -1.4559E+02 -1.4597E+02 -1.4635E+02 -1.4672E+02 -1.4706E+02 -1.4736E+02 -1.4762E+02 -1.4786E+02 -1.4807E+02 -1.4826E+02 -1.4844E+02 -1.4861E+02 -1.4877E+02 -1.4893E+02 -1.4908E+02 -1.4923E+02 -1.4938E+02 -1.4953E+02 -1.4969E+02 -1.4984E+02 -1.5000E+02 -1.5016E+02 -1.5033E+02 -1.5050E+02 -1.5068E+02 -1.5086E+02 -1.5104E+02 -1.5123E+02 -1.5142E+02 -1.5162E+02 -1.5182E+02 -1.5203E+02 -1.5225E+02 -1.5246E+02 -1.5269E+02 -1.5292E+02 -1.5315E+02 -1.5339E+02 -1.5363E+02 -1.5387E+02 -1.5412E+02 -1.5437E+02 -1.5463E+02 -1.5488E+02 -1.5515E+02
-9.1682E+01 -9.1671E+01 -9.1656E+01 -9.1639E+01 -9.1621E+01 -9.1604E+01 -9.1585E+01 -9.1565E+01 -9.1545E+01 -9.1523E+01 -9.1501E+01 -9.1478E+01 -9.1453E+01 -9.1428E+01 -9.1402E+01 -9.1374E+01 -9.1345E+01 -9.1315E+01 -9.1284E+01 -9.1252E+01 -9.1218E+01 -9.1183E+01 -9.1147E+01 -9.1109E+01 -9.1071E+01 -9.1031E+01 -9.0990E+01 -9.0949E+01 -9.0906E+01 -9.0863E+01 -9.0819E+01 -9.0774E+01 -9.0729E+01 -9.0683E+01 -9.0636E+01 -9.0589E+01 -9.0542E+01 -9.0494E+01 -9.0446E+01 -9.0398E+01 -9.0349E+01 -9.0300E+01 -9.0250E+01 -9.0200E+01 -9.0149E+01 -9.0098E+01 -9.0046E+01 -8.9994E+01 -8.9940E+01 -8.9885E+01 -8.9829E+01 -8.9771E+01 -8.9711E+01 -8.9649E+01 -8.9585E+01 -8.9519E+01 -8.9450E+01 -8.9378E+01 -8.9302E+01 -8.9222E+01 -8.9137E+01 -8.9047E+01 -8.8950E+01 -8.8846E+01 -8.8733E+01 -8.8611E+01 -8.8479E+01 -8.8335E+01 -8.8178E+01 -8.8008E+01 -8.7822E+01 -8.7620E+01 -8.7400E+01 -8.7161E+01 -8.6899E+01 -8.6612E+01 -8.6298E+01 -8.5959E+01 -8.5605E+01 -8.5261E+01 -8.4970E+01 -8.4793E+01 -8.4813E+01 -8.5125E+01 -8.5833E+01 -8.7042E+01 -8.8842E+01 -9.1304E+01 -9.4470E+01 -9.8348E+01 -1.0291E+02 -1.0811E+02 -1.1386E+02 -1.2007E+02 -1.2662E+02 -1.3338E+02 -1.4024E+02 -1.4707E+02 -1.5373E+02 -1.6012E+02 -1.6613E+02 -1.7165E+02 -1.7662E+02 -1.8100E+02 -1.8477E+02 -1.8795E+02 -1.9056E+02 -1.9265E+02 -1.9427E+02 -1.9544E+02 -1.9620E+02 -1.9653E+02 -1.9641E+02 -1.9582E+02 -1.9473E+02 -1.9310E+02 -1.9094E+02 -1.8825E+02 -1.8510E+02 -1.8154E+02 -1.7769E+02 -1.7367E+02 -1.6960E+02 -1.6562E+02 -1.6186E+02 -1.5843E+02 -1.5541E+02 -1.5287E+02 -1.5082E+02 -1.4926E+02 -1.4817E+02 -1.4748E+02 -1.4713E+02 -1.4704E+02 -1.4714E+02 -1.4734E+02 -1.4760E+02 -1.4788E+02 -1.4815E+02 -1.4840E+02 -1.4861E+02 -1.4880E+02 -1.4897E+02 -1.4912E+02 -1.4926E+02 -1.4939E+02 -1.4951E+02 -1.4963E+02 -1.4975E+02 -1.4987E+02 -1.4999E+02 -1.5011E+02 -1.5023E+02 -1.5036E+02 -1.5049E+02 -1.5063E+02 -1.5077E+02 -1.5092E+02 -1.5107E+02 -1.5123E+02 -1.5139E+02 -1.5156E+02 -1.5174E+02 -1.5192E+02 -1.5210E+02 -1.5230E+02 -1.5250E+02 -1.5270E+02 -1.5291E+02 -1.5313E+02 -1.5335E+02 -1.5357E+02 -1.5381E+02 -1.5404E+02 -1.5429E+02 -1.5453E+02 -1.5478E+02 -1.5503E+02 -1.5528E+02 -1.5554E+02
-9.2379E+01 -9.2366E+01 -9.2348E+01 -9.2330E+01 -9.2310E+01 -9.2291E+01 -9.2271E+01 -9.2250E+01 -9.2227E+01 -9.2204E+01 -9.2180E+01 -9.2155E+01 -9.2129E+01 -9.2101E+01 -9.2073E+01 -9.2043E+01 -9.2012E+01 -9.1980E+01 -9.1946E+01 -9.1911E+01 -9.1874E+01 -9.1836E+01 -9.1797E+01 -9.1756E+01 -9.1714E+01 -9.1671E+01 -9.1627E+01 -9.1582E+01 -9.1536E+01 -9.1490E+01 -9.1442E+01 -9.1395E+01 -9.1346E+01 -9.1298E+01 -9.1248E+01 -9.1199E+01 -9.1149E+01 -9.1099E+01 -9.1048E+01 -9.0998E+01 -9.0947E+01 -9.0896E+01 -9.0844E+01 -9.0793E+01 -9.0740E+01 -9.0688E+01 -9.0634E+01 -9.0580E+01 -9.0525E+01 -9.0469E+01 -9.0411E+01 -9.0353E+01 -9.0292E+01 -9.0230E+01 -9.0165E+01 -9.0099E+01 -9.0029E+01 -8.9957E+01 -8.9881E+01 -8.9801E+01 -8.9716E+01 -8.9625E+01 -8.9528E+01 -8.9424E+01 -8.9312E+01 -8.9190E+01 -8.9058E+01 -8.8914E+01 -8.8757E+01 -8.8586E+01 -8.8400E+01 -8.8197E+01 -8.7975E+01 -8.7732E+01 -8.7465E+01 -8.7170E+01 -8.6844E+01 -8.6488E+01 -8.6111E+01 -8.5736E+01 -8.5405E+01 -8.5180E+01 -8.5145E+01 -8.5400E+01 -8.6052E+01 -8.7211E+01 -8.8974E+01 -9.1417E+01 -9.4584E+01 -9.8487E+01 -1.0310E+02 -1.0837E+02 -1.1420E+02 -1.2051E+02 -1.2716E+02 -1.3403E+02 -1.4100E+02 -1.4792E+02 -1.5467E+02 -1.6113E+02 -1.6720E+02 -1.7276E+02 -1.7776E+02 -1.8215E+02 -1.8592E+02 -1.8907E+02 -1.9166E+02 -1.9372E+02 -1.9530E+02 -1.9644E+02 -1.9716E+02 -1.9746E+02 -1.9733E+02 -1.9673E+02 -1.9565E+02 -1.9405E+02 -1.9194E+02 -1.8934E+02 -1.8629E+02 -1.8288E+02 -1.7919E+02 -1.7535E+02 -1.7147E+02 -1.6768E+02 -1.6410E+02 -1.6081E+02 -1.5791E+02 -1.5543E+02 -1.5340E+02 -1.5183E+02 -1.5067E+02 -1.4989E+02 -1.4942E+02 -1.4920E+02 -1.4915E+02 -1.4922E+02 -1.4934E+02 -1.4950E+02 -1.4965E+02 -1.4979E+02 -1.4991E+02 -1.5002E+02 -1.5011E+02 -1.5019E+02 -1.5027E+02 -1.5034E+02 -1.5042E+02 -1.5049E+02 -1.5057E+02 -1.5065E+02 -1.5074E+02 -1.5083E+02 -1.5092E+02 -1.5103E+02 -1.5113E+02 -1.5125E+02 -1.5136E+02 -1.5149E+02 -1.5162E+02 -1.5177E+02 -1.5191E+02 -1.5207E+02 -1.5223E+02 -1.5240E+02 -1.5257E+02 -1.5275E+02 -1.5294E+02 -1.5314E+02 -1.5334E+02 -1.5355E+02 -1.5376E+02 -1.5398E+02 -1.5421E+02 -1.5444E+02 -1.5468E+02 -1.5492E+02 -1.5516E+02 -1.5541E+02 -1.5566E+02 -1.5592E+02
-9.3078E+01 -9.3061E+01 -9.3042E+01 -9.3022E+01 -9.3000E+01 -9.2979E+01 -9.2957E+01 -9.2934E+01 -9.2910E+01 -9.2885E+01 -9.2859E+01 -9.2832E+01 -9.2804E+01 -9.2774E+01 -9.2743E+01 -9.2711E+01 -9.2677E+01 -9.2642E+01 -9.2605E+01 -9.2567E+01 -9.2527E+01 -9.2486E+01 -9.2443E+01 -9.2399E+01 -9.2354E+01 -9.2307E+01 -9.2259E+01 -9.2211E+01 -9.2162E+01 -9.2112E+01 -9.2061E+01 -9.2011E+01 -9.1959E+01 -9.1907E+01 -9.1856E+01 -9.1803E+01 -9.1751E+01 -9.1699E+01 -9.1646E+01 -9.1593E+01 -9.1540E+01 -9.1487E+01 -9.1434E+01 -9.1380E+01 -9.1326E+01 -9.1272E+01 -9.1217E+01 -9.1162E+01 -9.1105E+01 -9.1048E+01 -9.0990E+01 -9.0930E+01 -9.0869E+01 -9.0806E+01 -9.0741E+01 -9.0674E+01 -9.0605E+01 -9.0532E+01 -9.0457E+01 -9.0377E+01 -9.0292E+01 -9.0202E+01 -9.0105E+01 -9.0002E+01 -8.9890E+01 -8.9769E+01 -8.9638E+01 -8.9495E+01 -8.9340E+01 -8.9171E+01 -8.8986E+01 -8.8783E+01 -8.8561E+01 -8.8317E+01 -8.8048E+01 -8.7749E+01 -8.7416E+01 -8.7049E+01 -8.6657E+01 -8.6261E+01 -8.5903E+01 -8.5646E+01 -8.5576E+01 -8.5795E+01 -8.6414E+01 -8.7546E+01 -8.9293E+01 -9.1734E+01 -9.4915E+01 -9.8849E+01 -1.0351E+02 -1.0884E+02 -1.1475E+02 -1.2114E+02 -1.2787E+02 -1.3483E+02 -1.4188E+02 -1.4888E+02 -1.5569E+02 -1.6221E+02 -1.6831E+02 -1.7389E+02 -1.7890E+02 -1.8329E+02 -1.8704E+02 -1.9018E+02 -1.9273E+02 -1.9476E+02 -1.9631E+02 -1.9742E+02 -1.9811E+02 -1.9839E+02 -1.9825E+02 -1.9766E+02 -1.9660E+02 -1.9505E+02 -1.9302E+02 -1.9053E+02 -1.8762E+02 -1.8438E+02 -1.8089E+02 -1.7726E+02 -1.7360E+02 -1.7002E+02 -1.6661E+02 -1.6348E+02 -1.6068E+02 -1.5826E+02 -1.5624E+02 -1.5462E+02 -1.5338E+02 -1.5249E+02 -1.5188E+02 -1.5150E+02 -1.5129E+02 -1.5120E+02 -1.5118E+02 -1.5119E+02 -1.5121E+02 -1.5123E+02 -1.5125E+02 -1.5126E+02 -1.5127E+02 -1.5128E+02 -1.5129E+02 -1.5131E+02 -1.5133E+02 -1.5136E+02 -1.5139E+02 -1.5143E+02 -1.5148E+02 -1.5154E+02 -1.5160E+02 -1.5168E+02 -1.5176E+02 -1.5185E+02 -1.5194E+02 -1.5205E+02 -1.5216E+02 -1.5229E+02 -1.5242E+02 -1.5255E+02 -1.5270E+02 -1.5286E+02 -1.5302E+02 -1.5319E+02 -1.5337E+02 -1.5355E+02 -1.5375E+02 -1.5395E+02 -1.5415E+02 -1.5437E+02 -1.5459E+02 -1.5481E+02 -1.5505E+02 -1.5529E+02 -1.5552E+02 -1.5577E+02 -1.5602E+02 -1.5628E+02
-9.3777E+01 -9.3758E+01 -9.3736E+01 -9.3714E+01 -9.3691E+01 -9.3668E+01 -9.3644E+01 -9.3619E+01 -9.3593E+01 -9.3566E+01 -9.3538E+01 -9.3508E+01 -9.3478E+01 -9.3446E+01 -9.3412E+01 -9.3377E+01 -9.3340E+01 -9.3302E+01 -9.3262E+01 -9.3220E+01 -9.3177E+01 -9.3132E+01 -9.3085E+01 -9.3038E+01 -9.2989E+01 -9.2939E+01 -9.2888E+01 -9.2836E+01 -9.2783E+01 -9.2730E+01 -9.2676E+01 -9.2622E+01 -9.2568E+01 -9.2513E+01 -9.2458E+01 -9.2403E+01 -9.2349E+01 -9.2294E+01 -9.2239E+01 -9.2184E+01 -9.2129E+01 -9.2074E+01 -9.2019E+01 -9.1963E+01 -9.1908E+01 -9.1852E+01 -9.1795E+01 -9.1739E+01 -9.1681E+01 -9.1623E+01 -9.1564E+01 -9.1503E+01 -9.1441E+01 -9.1378E+01 -9.1313E+01 -9.1246E+01 -9.1177E+01 -9.1104E+01 -9.1029E+01 -9.0949E+01 -9.0865E+01 -9.0776E+01 -9.0680E+01 -9.0578E+01 -9.0468E+01 -9.0348E+01 -9.0220E+01 -9.0079E+01 -8.9927E+01 -8.9760E+01 -8.9578E+01 -8.9379E+01 -8.9159E+01 -8.8917E+01 -8.8648E+01 -8.8348E+01 -8.8013E+01 -8.7642E+01 -8.7242E+01 -8.6836E+01 -8.6465E+01 -8.6194E+01 -8.6109E+01 -8.6315E+01 -8.6925E+01 -8.8054E+01 -8.9807E+01 -9.2264E+01 -9.5473E+01 -9.9445E+01 -1.0416E+02 -1.0954E+02 -1.1552E+02 -1.2197E+02 -1.2877E+02 -1.3580E+02 -1.4290E+02 -1.4995E+02 -1.5680E+02 -1.6334E+02 -1.6946E+02 -1.7505E+02 -1.8005E+02 -1.8442E+02 -1.8815E+02 -1.9126E+02 -1.9378E+02 -1.9578E+02 -1.9730E+02 -1.9838E+02 -1.9905E+02 -1.9932E+02 -1.9918E+02 -1.9861E+02 -1.9759E+02 -1.9612E+02 -1.9419E+02 -1.9184E+02 -1.8911E+02 -1.8608E+02 -1.8281E+02 -1.7942E+02 -1.7599E+02 -1.7262E+02 -1.6940E+02 -1.6641E+02 -1.6370E+02 -1.6133E+02 -1.5930E+02 -1.5762E+02 -1.5628E+02 -1.5524E+02 -1.5448E+02 -1.5392E+02 -1.5354E+02 -1.5327E+02 -1.5308E+02 -1.5294E+02 -1.5282E+02 -1.5272E+02 -1.5262E+02 -1.5253E+02 -1.5245E+02 -1.5238E+02 -1.5233E+02 -1.5228E+02 -1.5224E+02 -1.5222E+02 -1.5221E+02 -1.5221E+02 -1.5222E+02 -1.5224E+02 -1.5227E+02 -1.5232E+02 -1.5237E+02 -1.5243E+02 -1.5251E+02 -1.5259E+02 -1.5268E+02 -1.5279E+02 -1.5290E+02 -1.5302E+02 -1.5316E+02 -1.5330E+02 -1.5345E+02 -1.5361E+02 -1.5377E+02 -1.5395E+02 -1.5413E+02 -1.5433E+02 -1.5453E+02 -1.5473E+02 -1.5495E+02 -1.5517E+02 -1.5540E+02 -1.5564E+02 -1.5587E+02 -1.5611E+02 -1.5636E+02 -1.5662E+02
-9.4477E+01 -9.4455E+01 -9.4431E+01 -9.4407E+01 -9.4382E+01 -9.4356E+01 -9.4330E+01 -9.4303E+01 -9.4275E+01 -9.4246E+01 -9.4216E+01 -9.4184E+01 -9.4151E+01 -9.4115E+01 -9.4079E+01 -9.4040E+01 -9.4000E+01 -9.3958E+01 -9.3915E+01 -9.3869E+01 -9.3822E+01 -9.3774E+01 -9.3724E+01 -9.3672E+01 -9.3620E+01 -9.3566E+01 -9.3511E+01 -9.3456E+01 -9.3400E+01 -9.3343E+01 -9.3286E+01 -9.3229E+01 -9.3172E+01 -9.3114E+01 -9.3057E+01 -9.2999E+01 -9.2942E+01 -9.2885E+01 -9.2827E+01 -9.2770E+01 -9.2713E+01 -9.2656E+01 -9.2599E+01 -9.2541E+01 -9.2484E+01 -9.2426E+01 -9.2369E+01 -9.2310E+01 -9.2252E+01 -9.2193E+01 -9.2132E+01 -9.2071E+01 -9.2009E+01 -9.1946E+01 -9.1881E+01 -9.1813E+01 -9.1744E+01 -9.1672E+01 -9.1597E+01 -9.1518E+01 -9.1435E+01 -9.1346E+01 -9.1252E+01 -9.1152E+01 -9.1044E+01 -9.0927E+01 -9.0801E+01 -9.0665E+01 -9.0516E+01 -9.0354E+01 -9.0177E+01 -8.9982E+01 -8.9767E+01 -8.9529E+01 -8.9264E+01 -8.8967E+01 -8.8633E+01 -8.8263E+01 -8.7865E+01 -8.7459E+01 -8.7090E+01 -8.6823E+01 -8.6743E+01 -8.6958E+01 -8.7582E+01 -8.8732E+01 -9.0512E+01 -9.3002E+01 -9.6250E+01 -1.0027E+02 -1.0503E+02 -1.1047E+02 -1.1650E+02 -1.2300E+02 -1.2986E+02 -1.3692E+02 -1.4406E+02 -1.5114E+02 -1.5801E+02 -1.6455E+02 -1.7066E+02 -1.7624E+02 -1.8121E+02 -1.8555E+02 -1.8925E+02 -1.9232E+02 -1.9481E+02 -1.9677E+02 -1.9826E+02 -1.9932E+02 -1.9997E+02 -2.0024E+02 -2.0012E+02 -1.9959E+02 -1.9864E+02 -1.9727E+02 -1.9548E+02 -1.9330E+02 -1.9077E+02 -1.8797E+02 -1.8495E+02 -1.8181E+02 -1.7862E+02 -1.7547E+02 -1.7244E+02 -1.6958E+02 -1.6695E+02 -1.6460E+02 -1.6253E+02 -1.6078E+02 -1.5931E+02 -1.5812E+02 -1.5718E+02 -1.5644E+02 -1.5586E+02 -1.5541E+02 -1.5504E+02 -1.5474E+02 -1.5447E+02 -1.5423E+02 -1.5402E+02 -1.5383E+02 -1.5365E+02 -1.5350E+02 -1.5337E+02 -1.5325E+02 -1.5316E+02 -1.5308E+02 -1.5302E+02 -1.5298E+02 -1.5295E+02 -1.5293E+02 -1.5293E+02 -1.5294E+02 -1.5296E+02 -1.5300E+02 -1.5305E+02 -1.5311E+02 -1.5319E+02 -1.5327E+02 -1.5337E+02 -1.5348E+02 -1.5359E+02 -1.5372E+02 -1.5386E+02 -1.5401E+02 -1.5416E+02 -1.5433E+02 -1.5451E+02 -1.5469E+02 -1.5488E+02 -1.5509E+02 -1.5530E+02 -1.5551E+02 -1.5574E+02 -1.5597E+02 -1.5620E+02 -1.5644E+02 -1.5669E+02 -1.5695E+02
-9.5178E+01 -9.5153E+01 -9.5127E+01 -9.5100E+01 -9.5073E+01 -9.5045E+01 -9.5017E+01 -9.4988E+01 -9.4957E+01 -9.4926E+01 -9.4893E+01 -9.4858E+01 -9.4822E+01 -9.4784E+01 -9.4743E+01 -9.4702E+01 -9.4658E+01 -9.4612E+01 -9.4565E+01 -9.4515E+01 -9.4465E+01 -9.4412E+01 -9.4358E+01 -9.4303E+01 -9.4247E+01 -9.4189E+01 -9.4131E+01 -9.4072E+01 -9.4013E+01 -9.3953E+01 -9.3893E+01 -9.3833E+01 -9.3773E+01 -9.3712E+01 -9.3652E+01 -9.3592E+01 -9.3532E+01 -9.3472E+01 -9.3412E+01 -9.3353E+01 -9.3293E+01 -9.3234E+01 -9.3175E+01 -9.3115E+01 -9.3056E+01 -9.2997E+01 -9.2937E+01 -9.2878E+01 -9.2818E+01 -9.2758E+01 -9.2697E+01 -9.2635E+01 -9.2573E+01 -9.2509E+01 -9.2443E+01 -9.2376E+01 -9.2307E+01 -9.2236E+01 -9.2161E+01 -9.2083E+01 -9.2001E+01 -9.1914E+01 -9.1822E+01 -9.1723E+01 -9.1618E+01 -9.1505E+01 -9.1383E+01 -9.1251E+01 -9.1107E+01 -9.0951E+01 -9.0779E+01 -9.0591E+01 -9.0382E+01 -9.0151E+01 -8.9892E+01 -8.9602E+01 -8.9276E+01 -8.8913E+01 -8.8524E+01 -8.8131E+01 -8.7777E+01 -8.7528E+01 -8.7473E+01 -8.7717E+01 -8.8376E+01 -8.9565E+01 -9.1389E+01 -9.3927E+01 -9.7225E+01 -1.0129E+02 -1.0610E+02 -1.1159E+02 -1.1767E+02 -1.2421E+02 -1.3110E+02 -1.3820E+02 -1.4535E+02 -1.5243E+02 -1.5930E+02 -1.6582E+02 -1.7190E+02 -1.7745E+02 -1.8238E+02 -1.8668E+02 -1.9034E+02 -1.9337E+02 -1.9582E+02 -1.9775E+02 -1.9921E+02 -2.0025E+02 -2.0090E+02 -2.0118E+02 -2.0108E+02 -2.0061E+02 -1.9975E+02 -1.9850E+02 -1.9687E+02 -1.9489E+02 -1.9260E+02 -1.9005E+02 -1.8730E+02 -1.8442E+02 -1.8147E+02 -1.7854E+02 -1.7567E+02 -1.7293E+02 -1.7037E+02 -1.6802E+02 -1.6590E+02 -1.6404E+02 -1.6244E+02 -1.6108E+02 -1.5994E+02 -1.5901E+02 -1.5823E+02 -1.5758E+02 -1.5704E+02 -1.5656E+02 -1.5614E+02 -1.5577E+02 -1.5543E+02 -1.5513E+02 -1.5486E+02 -1.5462E+02 -1.5441E+02 -1.5422E+02 -1.5407E+02 -1.5393E+02 -1.5382E+02 -1.5373E+02 -1.5366E+02 -1.5360E+02 -1.5357E+02 -1.5355E+02 -1.5354E+02 -1.5355E+02 -1.5358E+02 -1.5362E+02 -1.5367E+02 -1.5374E+02 -1.5382E+02 -1.5391E+02 -1.5401E+02 -1.5413E+02 -1.5425E+02 -1.5439E+02 -1.5454E+02 -1.5469E+02 -1.5486E+02 -1.5504E+02 -1.5522E+02 -1.5542E+02 -1.5562E+02 -1.5584E+02 -1.5606E+02 -1.5629E+02 -1.5652E+02 -1.5676E+02 -1.5701E+02 -1.5727E+02
-9.5879E+01 -9.5851E+01 -9.5822E+01 -9.5793E+01 -9.5764E+01 -9.5734E+01 -9.5703E+01 -9.5672E+01 -9.5639E+01 -9.5604E+01 -9.5569E+01 -9.5531E+01 -9.5491E+01 -9.5449E+01 -9.5406E+01 -9.5360E+01 -9.5312E+01 -9.5263E+01 -9.5211E+01 -9.5158E+01 -9.5103E+01 -9.5047E+01 -9.4989E+01 -9.4930E+01 -9.4870E+01 -9.4810E+01 -9.4748E+01 -9.4686E+01 -9.4623E+01 -9.4561E+01 -9.4498E+01 -9.4435E+01 -9.4372E+01 -9.4308E+01 -9.4245E+01 -9.4183E+01 -9.4120E+01 -9.4057E+01 -9.3995E+01 -9.3933E+01 -9.3871E+01 -9.3809E+01 -9.3748E+01 -9.3686E+01 -9.3625E+01 -9.3564E+01 -9.3502E+01 -9.3441E+01 -9.3380E+01 -9.3319E+01 -9.3257E+01 -9.3194E+01 -9.3131E+01 -9.3067E+01 -9.3002E+01 -9.2935E+01 -9.2866E+01 -9.2795E+01 -9.2721E+01 -9.2644E+01 -9.2563E+01 -9.2478E+01 -9.2388E+01 -9.2293E+01 -9.2191E+01 -9.2082E+01 -9.1964E+01 -9.1838E+01 -9.1700E+01 -9.1550E+01 -9.1386E+01 -9.1205E+01 -9.1005E+01 -9.0782E+01 -9.0533E+01 -9.0253E+01 -8.9938E+01 -8.9590E+01 -8.9217E+01 -8.8845E+01 -8.8518E+01 -8.8303E+01 -8.8287E+01 -8.8577E+01 -8.9287E+01 -9.0532E+01 -9.2413E+01 -9.5008E+01 -9.8362E+01 -1.0248E+02 -1.0734E+02 -1.1287E+02 -1.1899E+02 -1.2556E+02 -1.3247E+02 -1.3958E+02 -1.4673E+02 -1.5380E+02 -1.6065E+02 -1.6714E+02 -1.7318E+02 -1.7868E+02 -1.8356E+02 -1.8781E+02 -1.9142E+02 -1.9440E+02 -1.9682E+02 -1.9872E+02 -2.0015E+02 -2.0118E+02 -2.0183E+02 -2.0213E+02 -2.0208E+02 -2.0168E+02 -2.0092E+02 -1.9982E+02 -1.9838E+02 -1.9662E+02 -1.9457E+02 -1.9229E+02 -1.8981E+02 -1.8720E+02 -1.8450E+02 -1.8177E+02 -1.7906E+02 -1.7642E+02 -1.7390E+02 -1.7153E+02 -1.6934E+02 -1.6737E+02 -1.6561E+02 -1.6407E+02 -1.6274E+02 -1.6159E+02 -1.6061E+02 -1.5977E+02 -1.5904E+02 -1.5840E+02 -1.5782E+02 -1.5731E+02 -1.5685E+02 -1.5643E+02 -1.5606E+02 -1.5573E+02 -1.5544E+02 -1.5519E+02 -1.5497E+02 -1.5477E+02 -1.5461E+02 -1.5447E+02 -1.5435E+02 -1.5426E+02 -1.5419E+02 -1.5414E+02 -1.5410E+02 -1.5408E+02 -1.5409E+02 -1.5410E+02 -1.5414E+02 -1.5418E+02 -1.5425E+02 -1.5432E+02 -1.5441E+02 -1.5451E+02 -1.5463E+02 -1.5475E+02 -1.5489E+02 -1.5504E+02 -1.5520E+02 -1.5537E+02 -1.5555E+02 -1.5574E+02 -1.5594E+02 -1.5615E+02 -1.5637E+02 -1.5660E+02 -1.5683E+02 -1.5707E+02 -1.5732E+02 -1.5758E+02
-9.6581E+01 -9.6549E+01 -9.6518E+01 -9.6487E+01 -9.6455E+01 -9.6423E+01 -9.6389E+01 -9.6355E+01 -9.6320E+01 -9.6282E+01 -9.6243E+01 -9.6202E+01 -9.6159E+01 -9.6113E+01 -9.6066E+01 -9.6016E+01 -9.5964E+01 -9.5910E+01 -9.5855E+01 -9.5797E+01 -9.5739E+01 -9.5678E+01 -9.5617E+01 -9.5555E+01 -9.5491E+01 -9.5428E+01 -9.5363E+01 -9.5298E+01 -9.5233E+01 -9.5167E+01 -9.5101E+01 -9.5036E+01 -9.4970E+01 -9.4904E+01 -9.4838E+01 -9.4772E+01 -9.4707E+01 -9.4642E+01 -9.4577E+01 -9.4512E+01 -9.4447E+01 -9.4383E+01 -9.4318E+01 -9.4255E+01 -9.4191E+01 -9.4128E+01 -9.4065E+01 -9.4002E+01 -9.3939E+01 -9.3876E+01 -9.3813E+01 -9.3750E+01 -9.3686E+01 -9.3621E+01 -9.3556E+01 -9.3489E+01 -9.3420E+01 -9.3350E+01 -9.3277E+01 -9.3201E+01 -9.3122E+01 -9.3039E+01 -9.2952E+01 -9.2860E+01 -9.2762E+01 -9.2657E+01 -9.2545E+01 -9.2424E+01 -9.2293E+01 -9.2151E+01 -9.1995E+01 -9.1823E+01 -9.1633E+01 -9.1421E+01 -9.1184E+01 -9.0917E+01 -9.0619E+01 -9.0290E+01 -8.9941E+01 -8.9599E+01 -8.9309E+01 -8.9138E+01 -8.9174E+01 -8.9521E+01 -9.0294E+01 -9.1603E+01 -9.3548E+01 -9.6204E+01 -9.9615E+01 -1.0379E+02 -1.0869E+02 -1.1426E+02 -1.2040E+02 -1.2700E+02 -1.3392E+02 -1.4102E+02 -1.4817E+02 -1.5521E+02 -1.6203E+02 -1.6848E+02 -1.7447E+02 -1.7991E+02 -1.8474E+02 -1.8893E+02 -1.9249E+02 -1.9543E+02 -1.9781E+02 -1.9968E+02 -2.0110E+02 -2.0212E+02 -2.0278E+02 -2.0311E+02 -2.0312E+02 -2.0280E+02 -2.0217E+02 -2.0123E+02 -1.9999E+02 -1.9846E+02 -1.9667E+02 -1.9466E+02 -1.9246E+02 -1.9010E+02 -1.8763E+02 -1.8509E+02 -1.8252E+02 -1.7997E+02 -1.7747E+02 -1.7507E+02 -1.7280E+02 -1.7069E+02 -1.6877E+02 -1.6705E+02 -1.6551E+02 -1.6416E+02 -1.6298E+02 -1.6194E+02 -1.6103E+02 -1.6022E+02 -1.5949E+02 -1.5884E+02 -1.5825E+02 -1.5773E+02 -1.5726E+02 -1.5684E+02 -1.5647E+02 -1.5614E+02 -1.5585E+02 -1.5560E+02 -1.5538E+02 -1.5519E+02 -1.5503E+02 -1.5490E+02 -1.5479E+02 -1.5470E+02 -1.5464E+02 -1.5460E+02 -1.5457E+02 -1.5457E+02 -1.5458E+02 -1.5461E+02 -1.5465E+02 -1.5471E+02 -1.5479E+02 -1.5488E+02 -1.5498E+02 -1.5510E+02 -1.5522E+02 -1.5537E+02 -1.5552E+02 -1.5568E+02 -1.5586E+02 -1.5605E+02 -1.5624E+02 -1.5645E+02 -1.5667E+02 -1.5690E+02 -1.5713E+02 -1.5737E+02 -1.5762E+02 -1.5788E+02
-9.7281E+01 -9.7247E+01 -9.7214E+01 -9.7181E+01 -9.7147E+01 -9.7112E+01 -9.7077E+01 -9.7040E+01 -9.7002E+01 -9.6962E+01 -9.6919E+01 -9.6874E+01 -9.6827E+01 -9.6777E+01 -9.6724E+01 -9.6670E+01 -9.6614E+01 -9.6555E+01 -9.6496E+01 -9.6434E+01 -9.6372E+01 -9.6308E+01 -9.6244E+01 -9.6178E+01 -9.6112E+01 -9.6045E+01 -9.5978E+01 -9.5910E+01 -9.5842E+01 -9.5774E+01 -9.5706E+01 -9.5638E+01 -9.5569E+01 -9.5501E+01 -9.5432E+01 -9.5364E+01 -9.5295E+01 -9.5227E+01 -9.5159E+01 -9.5091E+01 -9.5023E+01 -9.4956E+01 -9.4889E+01 -9.4823E+01 -9.4756E+01 -9.4691E+01 -9.4625E+01 -9.4560E+01 -9.4495E+01 -9.4431E+01 -9.4366E+01 -9.4302E+01 -9.4237E+01 -9.4172E+01 -9.4106E+01 -9.4039E+01 -9.3971E+01 -9.3901E+01 -9.3829E+01 -9.3755E+01 -9.3678E+01 -9.3597E+01 -9.3513E+01 -9.3424E+01 -9.3331E+01 -9.3231E+01 -9.3125E+01 -9.3010E+01 -9.2887E+01 -9.2753E+01 -9.2606E+01 -9.2445E+01 -9.2266E+01 -9.2067E+01 -9.1844E+01 -9.1594E+01 -9.1315E+01 -9.1010E+01 -9.0692E+01 -9.0387E+01 -9.0141E+01 -9.0022E+01 -9.0117E+01 -9.0529E+01 -9.1369E+01 -9.2746E+01 -9.4756E+01 -9.7472E+01 -1.0094E+02 -1.0515E+02 -1.1009E+02 -1.1569E+02 -1.2185E+02 -1.2845E+02 -1.3537E+02 -1.4247E+02 -1.4960E+02 -1.5661E+02 -1.6339E+02 -1.6980E+02 -1.7573E+02 -1.8112E+02 -1.8590E+02 -1.9004E+02 -1.9355E+02 -1.9645E+02 -1.9880E+02 -2.0064E+02 -2.0205E+02 -2.0308E+02 -2.0376E+02 -2.0413E+02 -2.0420E+02 -2.0398E+02 -2.0349E+02 -2.0271E+02 -2.0168E+02 -2.0039E+02 -1.9886E+02 -1.9712E+02 -1.9518E+02 -1.9307E+02 -1.9082E+02 -1.8845E+02 -1.8601E+02 -1.8352E+02 -1.8103E+02 -1.7858E+02 -1.7621E+02 -1.7397E+02 -1.7188E+02 -1.6997E+02 -1.6824E+02 -1.6668E+02 -1.6530E+02 -1.6407E+02 -1.6298E+02 -1.6200E+02 -1.6113E+02 -1.6034E+02 -1.5963E+02 -1.5900E+02 -1.5843E+02 -1.5792E+02 -1.5747E+02 -1.5707E+02 -1.5671E+02 -1.5640E+02 -1.5613E+02 -1.5589E+02 -1.5569E+02 -1.5551E+02 -1.5537E+02 -1.5525E+02 -1.5515E+02 -1.5508E+02 -1.5504E+02 -1.5501E+02 -1.5500E+02 -1.5501E+02 -1.5504E+02 -1.5509E+02 -1.5515E+02 -1.5523E+02 -1.5532E+02 -1.5542E+02 -1.5554E+02 -1.5568E+02 -1.5582E+02 -1.5598E+02 -1.5616E+02 -1.5634E+02 -1.5654E+02 -1.5674E+02 -1.5696E+02 -1.5719E+02 -1.5742E+02 -1.5766E+02 -1.5791E+02 -1.5819E+02
-9.7981E+01 -9.7945E+01 -9.7910E+01 -9.7876E+01 -9.7841E+01 -9.7805E+01 -9.7768E+01 -9.7730E+01 -9.7689E+01 -9.7646E+01 -9.7600E+01 -9.7550E+01 -9.7498E+01 -9.7442E+01 -9.7385E+01 -9.7325E+01 -9.7263E+01 -9.7200E+01 -9.7136E+01 -9.7071E+01 -9.7004E+01 -9.6938E+01 -9.6870E+01 -9.6802E+01 -9.6733E+01 -9.6664E+01 -9.6595E+01 -9.6525E+01 -9.6455E+01 -9.6384E+01 -9.6314E+01 -9.6243E+01 -9.6172E+01 -9.6101E+01 -9.6030E+01 -9.5958E+01 -9.5887E+01 -9.5815E+01 -9.5744E+01 -9.5673E+01 -9.5602E+01 -9.5532E+01 -9.5462E+01 -9.5392E+01 -9.5323E+01 -9.5254E+01 -9.5186E+01 -9.5118E+01 -9.5051E+01 -9.4984E+01 -9.4918E+01 -9.4851E+01 -9.4785E+01 -9.4719E+01 -9.4652E+01 -9.4585E+01 -9.4517E+01 -9.4448E+01 -9.4377E+01 -9.4304E+01 -9.4229E+01 -9.4152E+01 -9.4071E+01 -9.3986E+01 -9.3897E+01 -9.3803E+01 -9.3703E+01 -9.3596E+01 -9.3481E+01 -9.3356E+01 -9.3219E+01 -9.3069E+01 -9.2903E+01 -9.2718E+01 -9.2511E+01 -9.2281E+01 -9.2026E+01 -9.1749E+01 -9.1466E+01 -9.1203E+01 -9.1007E+01 -9.0945E+01 -9.1102E+01 -9.1580E+01 -9.2487E+01 -9.3929E+01 -9.5998E+01 -9.8766E+01 -1.0227E+02 -1.0652E+02 -1.1148E+02 -1.1709E+02 -1.2326E+02 -1.2986E+02 -1.3678E+02 -1.4386E+02 -1.5096E+02 -1.5794E+02 -1.6468E+02 -1.7104E+02 -1.7693E+02 -1.8227E+02 -1.8700E+02 -1.9110E+02 -1.9457E+02 -1.9744E+02 -1.9977E+02 -2.0160E+02 -2.0301E+02 -2.0405E+02 -2.0476E+02 -2.0517E+02 -2.0532E+02 -2.0521E+02 -2.0485E+02 -2.0426E+02 -2.0343E+02 -2.0237E+02 -2.0110E+02 -1.9961E+02 -1.9792E+02 -1.9605E+02 -1.9399E+02 -1.9178E+02 -1.8944E+02 -1.8700E+02 -1.8450E+02 -1.8200E+02 -1.7954E+02 -1.7716E+02 -1.7490E+02 -1.7280E+02 -1.7088E+02 -1.6913E+02 -1.6755E+02 -1.6614E+02 -1.6487E+02 -1.6374E+02 -1.6272E+02 -1.6180E+02 -1.6097E+02 -1.6023E+02 -1.5957E+02 -1.5897E+02 -1.5844E+02 -1.5797E+02 -1.5755E+02 -1.5717E+02 -1.5685E+02 -1.5656E+02 -1.5631E+02 -1.5610E+02 -1.5592E+02 -1.5576E+02 -1.5564E+02 -1.5555E+02 -1.5547E+02 -1.5543E+02 -1.5540E+02 -1.5539E+02 -1.5541E+02 -1.5544E+02 -1.5549E+02 -1.5555E+02 -1.5564E+02 -1.5573E+02 -1.5585E+02 -1.5597E+02 -1.5612E+02 -1.5627E+02 -1.5644E+02 -1.5662E+02 -1.5682E+02 -1.5703E+02 -1.5725E+02 -1.5748E+02 -1.5771E+02 -1.5795E+02 -1.5821E+02 -1.5848E+02
-9.8680E+01 -9.8642E+01 -9.8607E+01 -9.8574E+01 -9.8541E+01 -9.8505E+01 -9.8469E+01 -9.8430E+01 -9.8388E+01 -9.8343E+01 -9.8292E+01 -9.8238E+01 -9.8179E+01 -9.8117E+01 -9.8052E+01 -9.7985E+01 -9.7916E+01 -9.7847E+01 -9.7778E+01 -9.7708E+01 -9.7639E+01 -9.7569E+01 -9.7499E+01 -9.7429E+01 -9.7358E+01 -9.7287E+01 -9.7216E+01 -9.7144E+01 -9.7073E+01 -9.7000E+01 -9.6928E+01 -9.6855E+01 -9.6781E+01 -9.6708E+01 -9.6633E+01 -9.6559E+01 -9.6484E+01 -9.6410E+01 -9.6335E+01 -9.6260E+01 -9.6186E+01 -9.6112E+01 -9.6038E+01 -9.5965E+01 -9.5892E+01 -9.5820E+01 -9.5748E+01 -9.5677E+01 -9.5607E+01 -9.5537E+01 -9.5469E+01 -9.5400E+01 -9.5332E+01 -9.5264E+01 -9.5197E+01 -9.5129E+01 -9.5061E+01 -9.4992E+01 -9.4922E+01 -9.4851E+01 -9.4778E+01 -9.4703E+01 -9.4626E+01 -9.4546E+01 -9.4462E+01 -9.4373E+01 -9.4280E+01 -9.4181E+01 -9.4074E+01 -9.3958E+01 -9.3832E+01 -9.3694E+01 -9.3542E+01 -9.3373E+01 -9.3185E+01 -9.2976E+01 -9.2747E+01 -9.2503E+01 -9.2258E+01 -9.2041E+01 -9.1897E+01 -9.1893E+01 -9.2113E+01 -9.2655E+01 -9.3624E+01 -9.5123E+01 -9.7241E+01 -1.0005E+02 -1.0358E+02 -1.0785E+02 -1.1282E+02 -1.1843E+02 -1.2458E+02 -1.3117E+02 -1.3807E+02 -1.4512E+02 -1.5219E+02 -1.5914E+02 -1.6584E+02 -1.7217E+02 -1.7802E+02 -1.8331E+02 -1.8801E+02 -1.9208E+02 -1.9553E+02 -1.9839E+02 -2.0071E+02 -2.0254E+02 -2.0396E+02 -2.0502E+02 -2.0577E+02 -2.0624E+02 -2.0647E+02 -2.0647E+02 -2.0625E+02 -2.0583E+02 -2.0520E+02 -2.0437E+02 -2.0333E+02 -2.0209E+02 -2.0063E+02 -1.9896E+02 -1.9708E+02 -1.9501E+02 -1.9275E+02 -1.9035E+02 -1.8785E+02 -1.8529E+02 -1.8273E+02 -1.8021E+02 -1.7780E+02 -1.7552E+02 -1.7341E+02 -1.7147E+02 -1.6971E+02 -1.6812E+02 -1.6669E+02 -1.6540E+02 -1.6424E+02 -1.6320E+02 -1.6226E+02 -1.6142E+02 -1.6066E+02 -1.5998E+02 -1.5937E+02 -1.5882E+02 -1.5834E+02 -1.5791E+02 -1.5753E+02 -1.5719E+02 -1.5690E+02 -1.5665E+02 -1.5643E+02 -1.5625E+02 -1.5610E+02 -1.5598E+02 -1.5588E+02 -1.5582E+02 -1.5577E+02 -1.5575E+02 -1.5575E+02 -1.5577E+02 -1.5580E+02 -1.5586E+02 -1.5593E+02 -1.5603E+02 -1.5613E+02 -1.5626E+02 -1.5639E+02 -1.5655E+02 -1.5672E+02 -1.5690E+02 -1.5709E+02 -1.5730E+02 -1.5752E+02 -1.5776E+02 -1.5799E+02 -1.5824E+02 -1.5850E+02 -1.5878E+02
-9.9378E+01 -9.9338E+01 -9.9305E+01 -9.9277E+01 -9.9249E+01 -9.9218E+01 -9.9186E+01 -9.9150E+01 -9.9109E+01 -9.9062E+01 -9.9009E+01 -9.8948E+01 -9.8881E+01 -9.8809E+01 -9.8734E+01 -9.8657E+01 -9.8579E+01 -9.8501E+01 -9.8425E+01 -9.8351E+01 -9.8277E+01 -9.8205E+01 -9.8133E+01 -9.8061E+01 -9.7989E+01 -9.7917E+01 -9.7845E+01 -9.7772E+01 -9.7699E+01 -9.7625E+01 -9.7550E+01 -9.7475E+01 -9.7399E+01 -9.7323E+01 -9.7246E+01 -9.7168E+01 -9.7091E+01 -9.7012E+01 -9.6934E+01 -9.6855E+01 -9.6777E+01 -9.6699E+01 -9.6621E+01 -9.6543E+01 -9.6466E+01 -9.6390E+01 -9.6315E+01 -9.6240E+01 -9.6166E+01 -9.6093E+01 -9.6021E+01 -9.5949E+01 -9.5879E+01 -9.5809E+01 -9.5740E+01 -9.5671E+01 -9.5602E+01 -9.5533E+01 -9.5464E+01 -9.5395E+01 -9.5324E+01 -9.5252E+01 -9.5179E+01 -9.5103E+01 -9.5024E+01 -9.4942E+01 -9.4855E+01 -9.4764E+01 -9.4666E+01 -9.4560E+01 -9.4445E+01 -9.4320E+01 -9.4183E+01 -9.4031E+01 -9.3863E+01 -9.3679E+01 -9.3478E+01 -9.3269E+01 -9.3065E+01 -9.2895E+01 -9.2805E+01 -9.2858E+01 -9.3137E+01 -9.3737E+01 -9.4760E+01 -9.6304E+01 -9.8457E+01 -1.0129E+02 -1.0483E+02 -1.0910E+02 -1.1406E+02 -1.1964E+02 -1.2577E+02 -1.3233E+02 -1.3919E+02 -1.4621E+02 -1.5325E+02 -1.6016E+02 -1.6682E+02 -1.7311E+02 -1.7893E+02 -1.8421E+02 -1.8889E+02 -1.9295E+02 -1.9639E+02 -1.9926E+02 -2.0159E+02 -2.0344E+02 -2.0488E+02 -2.0598E+02 -2.0677E+02 -2.0731E+02 -2.0762E+02 -2.0773E+02 -2.0766E+02 -2.0740E+02 -2.0696E+02 -2.0634E+02 -2.0552E+02 -2.0449E+02 -2.0324E+02 -2.0176E+02 -2.0004E+02 -1.9809E+02 -1.9591E+02 -1.9355E+02 -1.9103E+02 -1.8841E+02 -1.8576E+02 -1.8312E+02 -1.8055E+02 -1.7811E+02 -1.7581E+02 -1.7370E+02 -1.7176E+02 -1.7000E+02 -1.6841E+02 -1.6698E+02 -1.6569E+02 -1.6453E+02 -1.6348E+02 -1.6254E+02 -1.6169E+02 -1.6093E+02 -1.6024E+02 -1.5963E+02 -1.5908E+02 -1.5859E+02 -1.5816E+02 -1.5778E+02 -1.5745E+02 -1.5716E+02 -1.5691E+02 -1.5670E+02 -1.5653E+02 -1.5638E+02 -1.5626E+02 -1.5618E+02 -1.5612E+02 -1.5608E+02 -1.5606E+02 -1.5607E+02 -1.5610E+02 -1.5615E+02 -1.5622E+02 -1.5630E+02 -1.5640E+02 -1.5652E+02 -1.5666E+02 -1.5681E+02 -1.5698E+02 -1.5716E+02 -1.5736E+02 -1.5757E+02 -1.5780E+02 -1.5804E+02 -1.5827E+02 -1.5852E+02 -1.5879E+02 -1.5908E+02
-1.0008E+02 -1.0003E+02 -1.0001E+02 -9.9987E+01 -9.9972E+01 -9.9950E+01 -9.9927E+01 -9.9900E+01 -9.9864E+01 -9.9819E+01 -9.9762E+01 -9.9695E+01 -9.9618E+01 -9.9533E+01 -9.9442E+01 -9.9350E+01 -9.9258E+01 -9.9169E+01 -9.9083E+01 -9.9002E+01 -9.8924E+01 -9.8849E+01 -9.8775E+01 -9.8703E+01 -9.8630E+01 -9.8557E+01 -9.8484E+01 -9.8410E+01 -9.8336E+01 -9.8260E+01 -9.8184E+01 -9.8107E+01 -9.8029E+01 -9.7950E+01 -9.7870E+01 -9.7789E+01 -9.7708E+01 -9.7626E+01 -9.7543E+01 -9.7461E+01 -9.7378E+01 -9.7295E+01 -9.7212E+01 -9.7130E+01 -9.7048E+01 -9.6967E+01 -9.6887E+01 -9.6808E+01 -9.6729E+01 -9.6652E+01 -9.6576E+01 -9.6501E+01 -9.6427E+01 -9.6354E+01 -9.6283E+01 -9.6212E+01 -9.6143E+01 -9.6074E+01 -9.6005E+01 -9.5937E+01 -9.5868E+01 -9.5799E+01 -9.5729E+01 -9.5658E+01 -9.5584E+01 -9.5508E+01 -9.5429E+01 -9.5345E+01 -9.5256E+01 -9.5161E+01 -9.5058E+01 -9.4946E+01 -9.4824E+01 -9.4691E+01 -9.4544E+01 -9.4385E+01 -9.4216E+01 -9.4042E+01 -9.3881E+01 -9.3759E+01 -9.3721E+01 -9.3830E+01 -9.4163E+01 -9.4813E+01 -9.5878E+01 -9.7454E+01 -9.9627E+01 -1.0246E+02 -1.0600E+02 -1.1024E+02 -1.1517E+02 -1.2071E+02 -1.2680E+02 -1.3331E+02 -1.4012E+02 -1.4709E+02 -1.5408E+02 -1.6095E+02 -1.6758E+02 -1.7384E+02 -1.7964E+02 -1.8491E+02 -1.8959E+02 -1.9366E+02 -1.9712E+02 -2.0001E+02 -2.0237E+02 -2.0426E+02 -2.0574E+02 -2.0688E+02 -2.0773E+02 -2.0834E+02 -2.0874E+02 -2.0897E+02 -2.0902E+02 -2.0892E+02 -2.0866E+02 -2.0822E+02 -2.0760E+02 -2.0677E+02 -2.0571E+02 -2.0440E+02 -2.0283E+02 -2.0098E+02 -1.9888E+02 -1.9654E+02 -1.9402E+02 -1.9135E+02 -1.8861E+02 -1.8585E+02 -1.8315E+02 -1.8054E+02 -1.7808E+02 -1.7579E+02 -1.7369E+02 -1.7177E+02 -1.7003E+02 -1.6846E+02 -1.6705E+02 -1.6577E+02 -1.6462E+02 -1.6358E+02 -1.6265E+02 -1.6181E+02 -1.6105E+02 -1.6038E+02 -1.5977E+02 -1.5923E+02 -1.5875E+02 -1.5833E+02 -1.5796E+02 -1.5763E+02 -1.5735E+02 -1.5711E+02 -1.5691E+02 -1.5675E+02 -1.5661E+02 -1.5651E+02 -1.5643E+02 -1.5638E+02 -1.5636E+02 -1.5635E+02 -1.5637E+02 -1.5642E+02 -1.5648E+02 -1.5656E+02 -1.5666E+02 -1.5678E+02 -1.5691E+02 -1.5707E+02 -1.5724E+02 -1.5742E+02 -1.5762E+02 -1.5784E+02 -1.5807E+02 -1.5831E+02 -1.5855E+02 -1.5881E+02 -1.5908E+02 -1.5938E+02
-1.0077E+02 -1.0073E+02 -1.0071E+02 -1.0071E+02 -1.0071E+02 -1.0071E+02 -1.0070E+02 -1.0069E+02 -1.0066E+02 -1.0063E+02 -1.0057E+02 -1.0049E+02 -1.0040E+02 -1.0030E+02 -1.0019E+02 -1.0008E+02 -9.9965E+01 -9.9859E+01 -9.9759E+01 -9.9668E+01 -9.9584E+01 -9.9505E+01 -9.9430E+01 -9.9356E+01 -9.9283E+01 -9.9210E+01 -9.9137E+01 -9.9062E+01 -9.8987E+01 -9.8910E+01 -9.8832E+01 -9.8753E+01 -9.8673E+01 -9.8591E+01 -9.8508E+01 -9.8424E+01 -9.8338E+01 -9.8252E+01 -9.8166E+01 -9.8078E+01 -9.7991E+01 -9.7903E+01 -9.7815E+01 -9.7728E+01 -9.7640E+01 -9.7554E+01 -9.7468E+01 -9.7383E+01 -9.7300E+01 -9.7217E+01 -9.7136E+01 -9.7057E+01 -9.6979E+01 -9.6902E+01 -9.6828E+01 -9.6755E+01 -9.6684E+01 -9.6614E+01 -9.6545E+01 -9.6478E+01 -9.6411E+01 -9.6344E+01 -9.6277E+01 -9.6210E+01 -9.6142E+01 -9.6072E+01 -9.6000E+01 -9.5924E+01 -9.5845E+01 -9.5760E+01 -9.5669E+01 -9.5571E+01 -9.5466E+01 -9.5351E+01 -9.5227E+01 -9.5095E+01 -9.4957E+01 -9.4821E+01 -9.4702E+01 -9.4628E+01 -9.4641E+01 -9.4801E+01 -9.5182E+01 -9.5874E+01 -9.6970E+01 -9.8564E+01 -1.0074E+02 -1.0356E+02 -1.0707E+02 -1.1127E+02 -1.1614E+02 -1.2163E+02 -1.2764E+02 -1.3408E+02 -1.4082E+02 -1.4773E+02 -1.5466E+02 -1.6149E+02 -1.6807E+02 -1.7431E+02 -1.8011E+02 -1.8537E+02 -1.9007E+02 -1.9417E+02 -1.9767E+02 -2.0060E+02 -2.0301E+02 -2.0496E+02 -2.0650E+02 -2.0770E+02 -2.0861E+02 -2.0930E+02 -2.0979E+02 -2.1012E+02 -2.1030E+02 -2.1034E+02 -2.1024E+02 -2.0998E+02 -2.0953E+02 -2.0888E+02 -2.0800E+02 -2.0684E+02 -2.0540E+02 -2.0366E+02 -2.0163E+02 -1.9933E+02 -1.9680E+02 -1.9409E+02 -1.9127E+02 -1.8841E+02 -1.8558E+02 -1.8283E+02 -1.8021E+02 -1.7776E+02 -1.7549E+02 -1.7342E+02 -1.7154E+02 -1.6984E+02 -1.6831E+02 -1.6692E+02 -1.6567E+02 -1.6455E+02 -1.6353E+02 -1.6262E+02 -1.6179E+02 -1.6105E+02 -1.6039E+02 -1.5980E+02 -1.5928E+02 -1.5882E+02 -1.5841E+02 -1.5805E+02 -1.5775E+02 -1.5748E+02 -1.5726E+02 -1.5708E+02 -1.5692E+02 -1.5681E+02 -1.5672E+02 -1.5665E+02 -1.5662E+02 -1.5661E+02 -1.5663E+02 -1.5666E+02 -1.5672E+02 -1.5680E+02 -1.5690E+02 -1.5702E+02 -1.5716E+02 -1.5731E+02 -1.5748E+02 -1.5767E+02 -1.5788E+02 -1.5810E+02 -1.5833E+02 -1.5858E+02 -1.5883E+02 -1.5909E+02 -1.5938E+02 -1.5968E+02
-1.0147E+02 -1.0142E+02 -1.0141E+02 -1.0144E+02 -1.0148E+02 -1.0149E+02 -1.0151E+02 -1.0153E+02 -1.0152E+02 -1.0150E+02 -1.0144E+02 -1.0136E+02 -1.0126E+02 -1.0113E+02 -1.0099E+02 -1.0085E+02 -1.0071E+02 -1.0058E+02 -1.0046E+02 -1.0035E+02 -1.0026E+02 -1.0018E+02 -1.0010E+02 -1.0003E+02 -9.9952E+01 -9.9879E+01 -9.9805E+01 -9.9731E+01 -9.9654E+01 -9.9576E+01 -9.9497E+01 -9.9416E+01 -9.9333E+01 -9.9248E+01 -9.9162E+01 -9.9074E+01 -9.8985E+01 -9.8895E+01 -9.8803E+01 -9.8711E+01 -9.8618E+01 -9.8524E+01 -9.8431E+01 -9.8337E+01 -9.8244E+01 -9.8152E+01 -9.8060E+01 -9.7969E+01 -9.7879E+01 -9.7791E+01 -9.7704E+01 -9.7619E+01 -9.7536E+01 -9.7455E+01 -9.7377E+01 -9.7301E+01 -9.7227E+01 -9.7155E+01 -9.7086E+01 -9.7018E+01 -9.6952E+01 -9.6888E+01 -9.6824E+01 -9.6761E+01 -9.6698E+01 -9.6634E+01 -9.6568E+01 -9.6501E+01 -9.6431E+01 -9.6357E+01 -9.6278E+01 -9.6195E+01 -9.6106E+01 -9.6011E+01 -9.5910E+01 -9.5805E+01 -9.5699E+01 -9.5601E+01 -9.5525E+01 -9.5497E+01 -9.5558E+01 -9.5765E+01 -9.6188E+01 -9.6913E+01 -9.8030E+01 -9.9630E+01 -1.0179E+02 -1.0459E+02 -1.0805E+02 -1.1219E+02 -1.1698E+02 -1.2238E+02 -1.2831E+02 -1.3466E+02 -1.4131E+02 -1.4814E+02 -1.5500E+02 -1.6176E+02 -1.6831E+02 -1.7452E+02 -1.8030E+02 -1.8558E+02 -1.9030E+02 -1.9444E+02 -1.9800E+02 -2.0100E+02 -2.0347E+02 -2.0549E+02 -2.0710E+02 -2.0837E+02 -2.0937E+02 -2.1014E+02 -2.1072E+02 -2.1115E+02 -2.1145E+02 -2.1163E+02 -2.1167E+02 -2.1156E+02 -2.1128E+02 -2.1080E+02 -2.1007E+02 -2.0906E+02 -2.0775E+02 -2.0612E+02 -2.0416E+02 -2.0190E+02 -1.9938E+02 -1.9664E+02 -1.9376E+02 -1.9081E+02 -1.8785E+02 -1.8496E+02 -1.8220E+02 -1.7959E+02 -1.7717E+02 -1.7496E+02 -1.7294E+02 -1.7111E+02 -1.6946E+02 -1.6797E+02 -1.6663E+02 -1.6542E+02 -1.6433E+02 -1.6334E+02 -1.6246E+02 -1.6166E+02 -1.6095E+02 -1.6031E+02 -1.5974E+02 -1.5925E+02 -1.5881E+02 -1.5842E+02 -1.5809E+02 -1.5781E+02 -1.5757E+02 -1.5736E+02 -1.5720E+02 -1.5707E+02 -1.5697E+02 -1.5690E+02 -1.5686E+02 -1.5684E+02 -1.5685E+02 -1.5689E+02 -1.5695E+02 -1.5703E+02 -1.5713E+02 -1.5725E+02 -1.5739E+02 -1.5755E+02 -1.5772E+02 -1.5792E+02 -1.5813E+02 -1.5835E+02 -1.5860E+02 -1.5885E+02 -1.5911E+02 -1.5938E+02 -1.5967E+02 -1.5998E+02
-1.0216E+02 -1.0212E+02 -1.0212E+02 -1.0218E+02 -1.0226E+02 -1.0231E+02 -1.0237E+02 -1.0242E+02 -1.0245E+02 -1.0244E+02 -1.0240E+02 -1.0231E+02 -1.0219E+02 -1.0204E+02 -1.0187E+02 -1.0169E+02 -1.0151E+02 -1.0134E+02 -1.0120E+02 -1.0107E+02 -1.0096E+02 -1.0087E+02 -1.0079E+02 -1.0071E+02 -1.0064E+02 -1.0057E+02 -1.0049E+02 -1.0042E+02 -1.0034E+02 -1.0026E+02 -1.0018E+02 -1.0010E+02 -1.0001E+02 -9.9924E+01 -9.9835E+01 -9.9743E+01 -9.9649E+01 -9.9554E+01 -9.9458E+01 -9.9360E+01 -9.9261E+01 -9.9162E+01 -9.9062E+01 -9.8962E+01 -9.8862E+01 -9.8762E+01 -9.8664E+01 -9.8566E+01 -9.8469E+01 -9.8374E+01 -9.8281E+01 -9.8189E+01 -9.8101E+01 -9.8014E+01 -9.7931E+01 -9.7851E+01 -9.7774E+01 -9.7700E+01 -9.7628E+01 -9.7560E+01 -9.7494E+01 -9.7431E+01 -9.7370E+01 -9.7310E+01 -9.7251E+01 -9.7193E+01 -9.7134E+01 -9.7075E+01 -9.7014E+01 -9.6951E+01 -9.6885E+01 -9.6816E+01 -9.6743E+01 -9.6668E+01 -9.6591E+01 -9.6514E+01 -9.6440E+01 -9.6379E+01 -9.6345E+01 -9.6362E+01 -9.6468E+01 -9.6717E+01 -9.7177E+01 -9.7928E+01 -9.9057E+01 -1.0065E+02 -1.0279E+02 -1.0554E+02 -1.0894E+02 -1.1300E+02 -1.1771E+02 -1.2300E+02 -1.2882E+02 -1.3506E+02 -1.4160E+02 -1.4832E+02 -1.5509E+02 -1.6178E+02 -1.6827E+02 -1.7445E+02 -1.8022E+02 -1.8551E+02 -1.9026E+02 -1.9446E+02 -1.9808E+02 -2.0115E+02 -2.0371E+02 -2.0580E+02 -2.0750E+02 -2.0886E+02 -2.0994E+02 -2.1079E+02 -2.1147E+02 -2.1201E+02 -2.1242E+02 -2.1272E+02 -2.1290E+02 -2.1294E+02 -2.1281E+02 -2.1248E+02 -2.1191E+02 -2.1104E+02 -2.0986E+02 -2.0834E+02 -2.0647E+02 -2.0427E+02 -2.0176E+02 -1.9901E+02 -1.9608E+02 -1.9304E+02 -1.8998E+02 -1.8696E+02 -1.8405E+02 -1.8130E+02 -1.7873E+02 -1.7637E+02 -1.7422E+02 -1.7227E+02 -1.7051E+02 -1.6892E+02 -1.6749E+02 -1.6620E+02 -1.6503E+02 -1.6398E+02 -1.6303E+02 -1.6218E+02 -1.6142E+02 -1.6074E+02 -1.6014E+02 -1.5961E+02 -1.5914E+02 -1.5874E+02 -1.5839E+02 -1.5808E+02 -1.5783E+02 -1.5761E+02 -1.5744E+02 -1.5730E+02 -1.5719E+02 -1.5712E+02 -1.5707E+02 -1.5705E+02 -1.5706E+02 -1.5710E+02 -1.5716E+02 -1.5724E+02 -1.5734E+02 -1.5747E+02 -1.5761E+02 -1.5777E+02 -1.5796E+02 -1.5816E+02 -1.5837E+02 -1.5861E+02 -1.5886E+02 -1.5912E+02 -1.5938E+02 -1.5966E+02 -1.5996E+02 -1.6028E+02
-1.0286E+02 -1.0282E+02 -1.0284E+02 -1.0293E+02 -1.0307E+02 -1.0317E+02 -1.0327E+02 -1.0337E+02 -1.0344E+02 -1.0346E+02 -1.0344E+02 -1.0335E+02 -1.0322E+02 -1.0303E+02 -1.0282E+02 -1.0260E+02 -1.0237E+02 -1.0216E+02 -1.0198E+02 -1.0182E+02 -1.0169E+02 -1.0159E+02 -1.0150E+02 -1.0142E+02 -1.0135E+02 -1.0128E+02 -1.0120E+02 -1.0113E+02 -1.0105E+02 -1.0097E+02 -1.0089E+02 -1.0080E+02 -1.0071E+02 -1.0062E+02 -1.0053E+02 -1.0043E+02 -1.0033E+02 -1.0023E+02 -1.0013E+02 -1.0003E+02 -9.9922E+01 -9.9816E+01 -9.9709E+01 -9.9602E+01 -9.9495E+01 -9.9388E+01 -9.9281E+01 -9.9176E+01 -9.9072E+01 -9.8969E+01 -9.8868E+01 -9.8770E+01 -9.8674E+01 -9.8582E+01 -9.8493E+01 -9.8408E+01 -9.8326E+01 -9.8248E+01 -9.8174E+01 -9.8104E+01 -9.8038E+01 -9.7975E+01 -9.7915E+01 -9.7858E+01 -9.7803E+01 -9.7750E+01 -9.7698E+01 -9.7646E+01 -9.7594E+01 -9.7541E+01 -9.7488E+01 -9.7433E+01 -9.7378E+01 -9.7323E+01 -9.7269E+01 -9.7219E+01 -9.7177E+01 -9.7153E+01 -9.7158E+01 -9.7218E+01 -9.7367E+01 -9.7655E+01 -9.8146E+01 -9.8917E+01 -1.0005E+02 -1.0163E+02 -1.0374E+02 -1.0644E+02 -1.0976E+02 -1.1373E+02 -1.1833E+02 -1.2351E+02 -1.2920E+02 -1.3531E+02 -1.4172E+02 -1.4832E+02 -1.5498E+02 -1.6158E+02 -1.6799E+02 -1.7412E+02 -1.7987E+02 -1.8517E+02 -1.8995E+02 -1.9419E+02 -1.9788E+02 -2.0104E+02 -2.0368E+02 -2.0587E+02 -2.0766E+02 -2.0910E+02 -2.1028E+02 -2.1123E+02 -2.1200E+02 -2.1264E+02 -2.1316E+02 -2.1358E+02 -2.1389E+02 -2.1407E+02 -2.1409E+02 -2.1392E+02 -2.1350E+02 -2.1279E+02 -2.1175E+02 -2.1035E+02 -2.0858E+02 -2.0644E+02 -2.0397E+02 -2.0121E+02 -1.9824E+02 -1.9513E+02 -1.9197E+02 -1.8882E+02 -1.8578E+02 -1.8288E+02 -1.8017E+02 -1.7767E+02 -1.7538E+02 -1.7331E+02 -1.7144E+02 -1.6976E+02 -1.6824E+02 -1.6687E+02 -1.6564E+02 -1.6452E+02 -1.6352E+02 -1.6262E+02 -1.6182E+02 -1.6110E+02 -1.6047E+02 -1.5991E+02 -1.5942E+02 -1.5899E+02 -1.5863E+02 -1.5831E+02 -1.5804E+02 -1.5782E+02 -1.5764E+02 -1.5749E+02 -1.5738E+02 -1.5730E+02 -1.5726E+02 -1.5724E+02 -1.5725E+02 -1.5729E+02 -1.5735E+02 -1.5744E+02 -1.5755E+02 -1.5768E+02 -1.5783E+02 -1.5800E+02 -1.5819E+02 -1.5839E+02 -1.5862E+02 -1.5886E+02 -1.5912E+02 -1.5939E+02 -1.5966E+02 -1.5995E+02 -1.6026E+02 -1.6059E+02
-1.0356E+02 -1.0351E+02 -1.0355E+02 -1.0368E+02 -1.0389E+02 -1.0404E+02 -1.0421E+02 -1.0437E+02 -1.0450E+02 -1.0457E+02 -1.0457E+02 -1.0449E+02 -1.0434E+02 -1.0413E+02 -1.0387E+02 -1.0359E+02 -1.0330E+02 -1.0304E+02 -1.0281E+02 -1.0261E+02 -1.0246E+02 -1.0234E+02 -1.0224E+02 -1.0216E+02 -1.0208E+02 -1.0201E+02 -1.0193E+02 -1.0186E+02 -1.0178E+02 -1.0170E+02 -1.0161E+02 -1.0152E+02 -1.0143E+02 -1.0134E+02 -1.0124E+02 -1.0114E+02 -1.0104E+02 -1.0093E+02 -1.0082E+02 -1.0071E+02 -1.0060E+02 -1.0049E+02 -1.0037E+02 -1.0026E+02 -1.0014E+02 -1.0003E+02 -9.9915E+01 -9.9801E+01 -9.9688E+01 -9.9577E+01 -9.9469E+01 -9.9363E+01 -9.9259E+01 -9.9160E+01 -9.9064E+01 -9.8972E+01 -9.8885E+01 -9.8803E+01 -9.8725E+01 -9.8652E+01 -9.8584E+01 -9.8520E+01 -9.8461E+01 -9.8405E+01 -9.8353E+01 -9.8305E+01 -9.8258E+01 -9.8214E+01 -9.8170E+01 -9.8128E+01 -9.8087E+01 -9.8047E+01 -9.8009E+01 -9.7973E+01 -9.7942E+01 -9.7919E+01 -9.7908E+01 -9.7918E+01 -9.7962E+01 -9.8062E+01 -9.8250E+01 -9.8574E+01 -9.9092E+01 -9.9879E+01 -1.0101E+02 -1.0258E+02 -1.0465E+02 -1.0728E+02 -1.1053E+02 -1.1440E+02 -1.1888E+02 -1.2393E+02 -1.2948E+02 -1.3544E+02 -1.4171E+02 -1.4816E+02 -1.5470E+02 -1.6118E+02 -1.6750E+02 -1.7357E+02 -1.7928E+02 -1.8456E+02 -1.8937E+02 -1.9365E+02 -1.9740E+02 -2.0063E+02 -2.0337E+02 -2.0565E+02 -2.0753E+02 -2.0907E+02 -2.1034E+02 -2.1139E+02 -2.1226E+02 -2.1300E+02 -2.1364E+02 -2.1418E+02 -2.1462E+02 -2.1494E+02 -2.1512E+02 -2.1511E+02 -2.1485E+02 -2.1430E+02 -2.1342E+02 -2.1215E+02 -2.1049E+02 -2.0844E+02 -2.0601E+02 -2.0327E+02 -2.0027E+02 -1.9709E+02 -1.9383E+02 -1.9057E+02 -1.8739E+02 -1.8435E+02 -1.8149E+02 -1.7885E+02 -1.7644E+02 -1.7425E+02 -1.7227E+02 -1.7049E+02 -1.6889E+02 -1.6744E+02 -1.6614E+02 -1.6497E+02 -1.6392E+02 -1.6298E+02 -1.6213E+02 -1.6139E+02 -1.6072E+02 -1.6014E+02 -1.5963E+02 -1.5919E+02 -1.5881E+02 -1.5849E+02 -1.5821E+02 -1.5798E+02 -1.5780E+02 -1.5765E+02 -1.5754E+02 -1.5746E+02 -1.5742E+02 -1.5740E+02 -1.5742E+02 -1.5746E+02 -1.5753E+02 -1.5762E+02 -1.5774E+02 -1.5788E+02 -1.5803E+02 -1.5821E+02 -1.5841E+02 -1.5863E+02 -1.5886E+02 -1.5911E+02 -1.5938E+02 -1.5966E+02 -1.5994E+02 -1.6024E+02 -1.6055E+02 -1.6089E+02
-1.0425E+02 -1.0420E+02 -1.0427E+02 -1.0445E+02 -1.0473E+02 -1.0494E+02 -1.0518E+02 -1.0542E+02 -1.0561E+02 -1.0574E+02 -1.0578E+02 -1.0572E+02 -1.0556E+02 -1.0532E+02 -1.0501E+02 -1.0466E+02 -1.0432E+02 -1.0399E+02 -1.0370E+02 -1.0346E+02 -1.0327E+02 -1.0312E+02 -1.0301E+02 -1.0292E+02 -1.0284E+02 -1.0277E+02 -1.0269E+02 -1.0261E+02 -1.0253E+02 -1.0245E+02 -1.0236E+02 -1.0227E+02 -1.0218E+02 -1.0208E+02 -1.0198E+02 -1.0187E+02 -1.0176E+02 -1.0165E+02 -1.0154E+02 -1.0142E+02 -1.0130E+02 -1.0118E+02 -1.0106E+02 -1.0094E+02 -1.0081E+02 -1.0069E+02 -1.0056E+02 -1.0044E+02 -1.0032E+02 -1.0020E+02 -1.0008E+02 -9.9968E+01 -9.9857E+01 -9.9749E+01 -9.9646E+01 -9.9547E+01 -9.9453E+01 -9.9365E+01 -9.9282E+01 -9.9205E+01 -9.9133E+01 -9.9068E+01 -9.9008E+01 -9.8953E+01 -9.8903E+01 -9.8858E+01 -9.8816E+01 -9.8778E+01 -9.8743E+01 -9.8711E+01 -9.8682E+01 -9.8656E+01 -9.8634E+01 -9.8617E+01 -9.8609E+01 -9.8612E+01 -9.8631E+01 -9.8674E+01 -9.8755E+01 -9.8892E+01 -9.9117E+01 -9.9472E+01 -1.0001E+02 -1.0081E+02 -1.0194E+02 -1.0349E+02 -1.0551E+02 -1.0808E+02 -1.1125E+02 -1.1501E+02 -1.1937E+02 -1.2428E+02 -1.2968E+02 -1.3548E+02 -1.4159E+02 -1.4789E+02 -1.5428E+02 -1.6063E+02 -1.6684E+02 -1.7282E+02 -1.7847E+02 -1.8373E+02 -1.8853E+02 -1.9284E+02 -1.9664E+02 -1.9994E+02 -2.0275E+02 -2.0512E+02 -2.0710E+02 -2.0874E+02 -2.1010E+02 -2.1125E+02 -2.1222E+02 -2.1307E+02 -2.1382E+02 -2.1449E+02 -2.1507E+02 -2.1554E+02 -2.1588E+02 -2.1603E+02 -2.1596E+02 -2.1559E+02 -2.1487E+02 -2.1377E+02 -2.1224E+02 -2.1028E+02 -2.0792E+02 -2.0520E+02 -2.0218E+02 -1.9895E+02 -1.9560E+02 -1.9222E+02 -1.8891E+02 -1.8572E+02 -1.8272E+02 -1.7993E+02 -1.7738E+02 -1.7507E+02 -1.7299E+02 -1.7111E+02 -1.6943E+02 -1.6791E+02 -1.6655E+02 -1.6532E+02 -1.6422E+02 -1.6324E+02 -1.6236E+02 -1.6159E+02 -1.6090E+02 -1.6030E+02 -1.5978E+02 -1.5933E+02 -1.5894E+02 -1.5861E+02 -1.5833E+02 -1.5810E+02 -1.5792E+02 -1.5777E+02 -1.5767E+02 -1.5759E+02 -1.5755E+02 -1.5755E+02 -1.5757E+02 -1.5762E+02 -1.5770E+02 -1.5780E+02 -1.5792E+02 -1.5807E+02 -1.5823E+02 -1.5842E+02 -1.5863E+02 -1.5885E+02 -1.5910E+02 -1.5936E+02 -1.5964E+02 -1.5993E+02 -1.6022E+02 -1.6053E+02 -1.6085E+02 -1.6120E+02
-1.0495E+02 -1.0490E+02 -1.0498E+02 -1.0521E+02 -1.0557E+02 -1.0586E+02 -1.0617E+02 -1.0649E+02 -1.0677E+02 -1.0697E+02 -1.0706E+02 -1.0703E+02 -1.0687E+02 -1.0660E+02 -1.0624E+02 -1.0583E+02 -1.0541E+02 -1.0501E+02 -1.0465E+02 -1.0435E+02 -1.0412E+02 -1.0394E+02 -1.0381E+02 -1.0371E+02 -1.0363E+02 -1.0355E+02 -1.0347E+02 -1.0340E+02 -1.0332E+02 -1.0323E+02 -1.0314E+02 -1.0304E+02 -1.0294E+02 -1.0284E+02 -1.0273E+02 -1.0262E+02 -1.0251E+02 -1.0239E+02 -1.0227E+02 -1.0215E+02 -1.0202E+02 -1.0189E+02 -1.0176E+02 -1.0163E+02 -1.0150E+02 -1.0136E+02 -1.0123E+02 -1.0110E+02 -1.0097E+02 -1.0084E+02 -1.0071E+02 -1.0059E+02 -1.0047E+02 -1.0035E+02 -1.0024E+02 -1.0013E+02 -1.0003E+02 -9.9935E+01 -9.9846E+01 -9.9763E+01 -9.9688E+01 -9.9619E+01 -9.9557E+01 -9.9501E+01 -9.9452E+01 -9.9409E+01 -9.9372E+01 -9.9340E+01 -9.9312E+01 -9.9290E+01 -9.9272E+01 -9.9259E+01 -9.9253E+01 -9.9255E+01 -9.9268E+01 -9.9296E+01 -9.9344E+01 -9.9418E+01 -9.9532E+01 -9.9705E+01 -9.9963E+01 -1.0035E+02 -1.0091E+02 -1.0172E+02 -1.0284E+02 -1.0436E+02 -1.0635E+02 -1.0885E+02 -1.1193E+02 -1.1559E+02 -1.1982E+02 -1.2459E+02 -1.2983E+02 -1.3547E+02 -1.4141E+02 -1.4754E+02 -1.5376E+02 -1.5996E+02 -1.6605E+02 -1.7192E+02 -1.7749E+02 -1.8269E+02 -1.8747E+02 -1.9179E+02 -1.9562E+02 -1.9896E+02 -2.0184E+02 -2.0429E+02 -2.0635E+02 -2.0808E+02 -2.0954E+02 -2.1079E+02 -2.1187E+02 -2.1283E+02 -2.1370E+02 -2.1450E+02 -2.1522E+02 -2.1585E+02 -2.1637E+02 -2.1671E+02 -2.1683E+02 -2.1666E+02 -2.1613E+02 -2.1520E+02 -2.1382E+02 -2.1198E+02 -2.0970E+02 -2.0701E+02 -2.0399E+02 -2.0071E+02 -1.9727E+02 -1.9378E+02 -1.9033E+02 -1.8700E+02 -1.8385E+02 -1.8092E+02 -1.7824E+02 -1.7580E+02 -1.7360E+02 -1.7163E+02 -1.6986E+02 -1.6827E+02 -1.6685E+02 -1.6557E+02 -1.6443E+02 -1.6341E+02 -1.6251E+02 -1.6171E+02 -1.6101E+02 -1.6040E+02 -1.5987E+02 -1.5941E+02 -1.5902E+02 -1.5869E+02 -1.5841E+02 -1.5819E+02 -1.5800E+02 -1.5787E+02 -1.5777E+02 -1.5770E+02 -1.5767E+02 -1.5767E+02 -1.5770E+02 -1.5776E+02 -1.5785E+02 -1.5796E+02 -1.5810E+02 -1.5825E+02 -1.5843E+02 -1.5863E+02 -1.5885E+02 -1.5908E+02 -1.5934E+02 -1.5961E+02 -1.5989E+02 -1.6020E+02 -1.6050E+02 -1.6082E+02 -1.6115E+02 -1.6151E+02
-1.0564E+02 -1.0559E+02 -1.0569E+02 -1.0597E+02 -1.0641E+02 -1.0677E+02 -1.0718E+02 -1.0759E+02 -1.0796E+02 -1.0824E+02 -1.0840E+02 -1.0840E+02 -1.0826E+02 -1.0796E+02 -1.0756E+02 -1.0709E+02 -1.0658E+02 -1.0610E+02 -1.0566E+02 -1.0530E+02 -1.0502E+02 -1.0480E+02 -1.0465E+02 -1.0453E+02 -1.0444E+02 -1.0436E+02 -1.0429E+02 -1.0421E+02 -1.0412E+02 -1.0403E+02 -1.0394E+02 -1.0384E+02 -1.0374E+02 -1.0363E+02 -1.0352E+02 -1.0340E+02 -1.0328E+02 -1.0315E+02 -1.0302E+02 -1.0289E+02 -1.0276E+02 -1.0262E+02 -1.0248E+02 -1.0234E+02 -1.0220E+02 -1.0206E+02 -1.0192E+02 -1.0177E+02 -1.0163E+02 -1.0149E+02 -1.0136E+02 -1.0122E+02 -1.0109E+02 -1.0097E+02 -1.0084E+02 -1.0073E+02 -1.0062E+02 -1.0051E+02 -1.0042E+02 -1.0033E+02 -1.0025E+02 -1.0017E+02 -1.0011E+02 -1.0005E+02 -1.0000E+02 -9.9960E+01 -9.9926E+01 -9.9898E+01 -9.9878E+01 -9.9863E+01 -9.9856E+01 -9.9857E+01 -9.9866E+01 -9.9886E+01 -9.9920E+01 -9.9971E+01 -1.0004E+02 -1.0015E+02 -1.0029E+02 -1.0050E+02 -1.0079E+02 -1.0120E+02 -1.0178E+02 -1.0260E+02 -1.0371E+02 -1.0521E+02 -1.0715E+02 -1.0959E+02 -1.1258E+02 -1.1613E+02 -1.2024E+02 -1.2487E+02 -1.2995E+02 -1.3542E+02 -1.4119E+02 -1.4714E+02 -1.5319E+02 -1.5923E+02 -1.6516E+02 -1.7090E+02 -1.7637E+02 -1.8149E+02 -1.8622E+02 -1.9052E+02 -1.9435E+02 -1.9773E+02 -2.0066E+02 -2.0317E+02 -2.0530E+02 -2.0711E+02 -2.0867E+02 -2.1001E+02 -2.1120E+02 -2.1227E+02 -2.1327E+02 -2.1421E+02 -2.1509E+02 -2.1590E+02 -2.1660E+02 -2.1715E+02 -2.1748E+02 -2.1752E+02 -2.1720E+02 -2.1646E+02 -2.1525E+02 -2.1355E+02 -2.1136E+02 -2.0872E+02 -2.0570E+02 -2.0238E+02 -1.9887E+02 -1.9527E+02 -1.9168E+02 -1.8820E+02 -1.8490E+02 -1.8182E+02 -1.7900E+02 -1.7643E+02 -1.7412E+02 -1.7205E+02 -1.7019E+02 -1.6853E+02 -1.6705E+02 -1.6572E+02 -1.6454E+02 -1.6349E+02 -1.6257E+02 -1.6175E+02 -1.6104E+02 -1.6042E+02 -1.5989E+02 -1.5943E+02 -1.5904E+02 -1.5872E+02 -1.5845E+02 -1.5823E+02 -1.5806E+02 -1.5793E+02 -1.5784E+02 -1.5779E+02 -1.5777E+02 -1.5778E+02 -1.5783E+02 -1.5790E+02 -1.5800E+02 -1.5812E+02 -1.5827E+02 -1.5843E+02 -1.5862E+02 -1.5883E+02 -1.5906E+02 -1.5931E+02 -1.5957E+02 -1.5986E+02 -1.6015E+02 -1.6047E+02 -1.6078E+02 -1.6111E+02 -1.6145E+02 -1.6182E+02
-1.0634E+02 -1.0629E+02 -1.0640E+02 -1.0672E+02 -1.0725E+02 -1.0769E+02 -1.0818E+02 -1.0870E+02 -1.0917E+02 -1.0954E+02 -1.0977E+02 -1.0983E+02 -1.0971E+02 -1.0940E+02 -1.0896E+02 -1.0842E+02 -1.0784E+02 -1.0726E+02 -1.0675E+02 -1.0631E+02 -1.0596E+02 -1.0570E+02 -1.0552E+02 -1.0539E+02 -1.0529E+02 -1.0520E+02 -1.0512E+02 -1.0504E+02 -1.0496E+02 -1.0486E+02 -1.0477E+02 -1.0466E+02 -1.0455E+02 -1.0444E+02 -1.0432E+02 -1.0420E+02 -1.0407E+02 -1.0394E+02 -1.0380E+02 -1.0366E+02 -1.0352E+02 -1.0337E+02 -1.0322E+02 -1.0307E+02 -1.0292E+02 -1.0277E+02 -1.0262E+02 -1.0247E+02 -1.0232E+02 -1.0217E+02 -1.0202E+02 -1.0187E+02 -1.0173E+02 -1.0160E+02 -1.0146E+02 -1.0134E+02 -1.0122E+02 -1.0110E+02 -1.0100E+02 -1.0090E+02 -1.0081E+02 -1.0073E+02 -1.0066E+02 -1.0060E+02 -1.0055E+02 -1.0051E+02 -1.0048E+02 -1.0045E+02 -1.0044E+02 -1.0043E+02 -1.0044E+02 -1.0045E+02 -1.0047E+02 -1.0051E+02 -1.0056E+02 -1.0063E+02 -1.0073E+02 -1.0086E+02 -1.0104E+02 -1.0127E+02 -1.0159E+02 -1.0202E+02 -1.0262E+02 -1.0344E+02 -1.0455E+02 -1.0602E+02 -1.0792E+02 -1.1030E+02 -1.1321E+02 -1.1666E+02 -1.2064E+02 -1.2513E+02 -1.3006E+02 -1.3536E+02 -1.4095E+02 -1.4672E+02 -1.5259E+02 -1.5845E+02 -1.6422E+02 -1.6981E+02 -1.7515E+02 -1.8017E+02 -1.8483E+02 -1.8908E+02 -1.9289E+02 -1.9627E+02 -1.9922E+02 -2.0177E+02 -2.0397E+02 -2.0585E+02 -2.0749E+02 -2.0893E+02 -2.1022E+02 -2.1142E+02 -2.1255E+02 -2.1364E+02 -2.1469E+02 -2.1568E+02 -2.1659E+02 -2.1735E+02 -2.1791E+02 -2.1818E+02 -2.1809E+02 -2.1756E+02 -2.1654E+02 -2.1499E+02 -2.1290E+02 -2.1033E+02 -2.0732E+02 -2.0397E+02 -2.0038E+02 -1.9667E+02 -1.9296E+02 -1.8933E+02 -1.8588E+02 -1.8265E+02 -1.7967E+02 -1.7698E+02 -1.7454E+02 -1.7237E+02 -1.7042E+02 -1.6869E+02 -1.6715E+02 -1.6577E+02 -1.6456E+02 -1.6348E+02 -1.6254E+02 -1.6171E+02 -1.6099E+02 -1.6037E+02 -1.5985E+02 -1.5940E+02 -1.5902E+02 -1.5870E+02 -1.5845E+02 -1.5824E+02 -1.5808E+02 -1.5796E+02 -1.5789E+02 -1.5785E+02 -1.5785E+02 -1.5787E+02 -1.5793E+02 -1.5802E+02 -1.5813E+02 -1.5827E+02 -1.5843E+02 -1.5861E+02 -1.5881E+02 -1.5904E+02 -1.5928E+02 -1.5954E+02 -1.5981E+02 -1.6011E+02 -1.6042E+02 -1.6074E+02 -1.6106E+02 -1.6140E+02 -1.6176E+02 -1.6214E+02
-1.0704E+02 -1.0699E+02 -1.0712E+02 -1.0748E+02 -1.0809E+02 -1.0860E+02 -1.0918E+02 -1.0980E+02 -1.1038E+02 -1.1086E+02 -1.1118E+02 -1.1130E+02 -1.1120E+02 -1.1090E+02 -1.1042E+02 -1.0982E+02 -1.0916E+02 -1.0850E+02 -1.0789E+02 -1.0737E+02 -1.0696E+02 -1.0665E+02 -1.0643E+02 -1.0628E+02 -1.0616E+02 -1.0607E+02 -1.0599E+02 -1.0590E+02 -1.0582E+02 -1.0572E+02 -1.0562E+02 -1.0551E+02 -1.0540E+02 -1.0528E+02 -1.0515E+02 -1.0502E+02 -1.0488E+02 -1.0474E+02 -1.0460E+02 -1.0445E+02 -1.0430E+02 -1.0414E+02 -1.0399E+02 -1.0383E+02 -1.0367E+02 -1.0350E+02 -1.0334E+02 -1.0318E+02 -1.0302E+02 -1.0285E+02 -1.0270E+02 -1.0254E+02 -1.0239E+02 -1.0224E+02 -1.0210E+02 -1.0196E+02 -1.0183E+02 -1.0171E+02 -1.0159E+02 -1.0148E+02 -1.0139E+02 -1.0130E+02 -1.0122E+02 -1.0116E+02 -1.0111E+02 -1.0106E+02 -1.0103E+02 -1.0101E+02 -1.0100E+02 -1.0100E+02 -1.0101E+02 -1.0103E+02 -1.0107E+02 -1.0112E+02 -1.0119E+02 -1.0129E+02 -1.0141E+02 -1.0156E+02 -1.0177E+02 -1.0203E+02 -1.0237E+02 -1.0282E+02 -1.0343E+02 -1.0426E+02 -1.0536E+02 -1.0681E+02 -1.0866E+02 -1.1099E+02 -1.1381E+02 -1.1716E+02 -1.2103E+02 -1.2538E+02 -1.3016E+02 -1.3530E+02 -1.4071E+02 -1.4630E+02 -1.5198E+02 -1.5766E+02 -1.6325E+02 -1.6868E+02 -1.7387E+02 -1.7877E+02 -1.8333E+02 -1.8750E+02 -1.9127E+02 -1.9462E+02 -1.9758E+02 -2.0015E+02 -2.0239E+02 -2.0434E+02 -2.0605E+02 -2.0758E+02 -2.0898E+02 -2.1031E+02 -2.1158E+02 -2.1282E+02 -2.1405E+02 -2.1524E+02 -2.1636E+02 -2.1736E+02 -2.1815E+02 -2.1867E+02 -2.1882E+02 -2.1851E+02 -2.1768E+02 -2.1629E+02 -2.1433E+02 -2.1183E+02 -2.0885E+02 -2.0547E+02 -2.0182E+02 -1.9802E+02 -1.9417E+02 -1.9040E+02 -1.8679E+02 -1.8340E+02 -1.8028E+02 -1.7744E+02 -1.7489E+02 -1.7260E+02 -1.7056E+02 -1.6875E+02 -1.6715E+02 -1.6573E+02 -1.6448E+02 -1.6338E+02 -1.6242E+02 -1.6159E+02 -1.6087E+02 -1.6026E+02 -1.5974E+02 -1.5931E+02 -1.5894E+02 -1.5864E+02 -1.5840E+02 -1.5822E+02 -1.5807E+02 -1.5798E+02 -1.5792E+02 -1.5790E+02 -1.5791E+02 -1.5796E+02 -1.5803E+02 -1.5813E+02 -1.5826E+02 -1.5841E+02 -1.5859E+02 -1.5879E+02 -1.5900E+02 -1.5924E+02 -1.5949E+02 -1.5976E+02 -1.6005E+02 -1.6036E+02 -1.6068E+02 -1.6101E+02 -1.6135E+02 -1.6170E+02 -1.6206E+02 -1.6245E+02
-1.0773E+02 -1.0769E+02 -1.0783E+02 -1.0823E+02 -1.0892E+02 -1.0950E+02 -1.1018E+02 -1.1091E+02 -1.1159E+02 -1.1218E+02 -1.1260E+02 -1.1279E+02 -1.1274E+02 -1.1244E+02 -1.1194E+02 -1.1128E+02 -1.1054E+02 -1.0979E+02 -1.0909E+02 -1.0848E+02 -1.0800E+02 -1.0764E+02 -1.0738E+02 -1.0720E+02 -1.0707E+02 -1.0697E+02 -1.0688E+02 -1.0680E+02 -1.0670E+02 -1.0660E+02 -1.0650E+02 -1.0638E+02 -1.0626E+02 -1.0614E+02 -1.0600E+02 -1.0586E+02 -1.0572E+02 -1.0557E+02 -1.0542E+02 -1.0526E+02 -1.0510E+02 -1.0494E+02 -1.0477E+02 -1.0460E+02 -1.0443E+02 -1.0425E+02 -1.0408E+02 -1.0391E+02 -1.0373E+02 -1.0356E+02 -1.0339E+02 -1.0322E+02 -1.0306E+02 -1.0290E+02 -1.0274E+02 -1.0259E+02 -1.0245E+02 -1.0232E+02 -1.0219E+02 -1.0208E+02 -1.0197E+02 -1.0187E+02 -1.0179E+02 -1.0172E+02 -1.0166E+02 -1.0161E+02 -1.0158E+02 -1.0156E+02 -1.0155E+02 -1.0156E+02 -1.0158E+02 -1.0161E+02 -1.0166E+02 -1.0173E+02 -1.0181E+02 -1.0193E+02 -1.0207E+02 -1.0225E+02 -1.0247E+02 -1.0276E+02 -1.0312E+02 -1.0359E+02 -1.0422E+02 -1.0505E+02 -1.0614E+02 -1.0756E+02 -1.0938E+02 -1.1164E+02 -1.1439E+02 -1.1765E+02 -1.2140E+02 -1.2562E+02 -1.3025E+02 -1.3523E+02 -1.4047E+02 -1.4587E+02 -1.5137E+02 -1.5686E+02 -1.6227E+02 -1.6752E+02 -1.7256E+02 -1.7732E+02 -1.8175E+02 -1.8583E+02 -1.8952E+02 -1.9283E+02 -1.9577E+02 -1.9835E+02 -2.0062E+02 -2.0262E+02 -2.0440E+02 -2.0602E+02 -2.0753E+02 -2.0897E+02 -2.1039E+02 -2.1180E+02 -2.1321E+02 -2.1461E+02 -2.1595E+02 -2.1718E+02 -2.1823E+02 -2.1899E+02 -2.1938E+02 -2.1931E+02 -2.1868E+02 -2.1747E+02 -2.1564E+02 -2.1322E+02 -2.1027E+02 -2.0689E+02 -2.0319E+02 -1.9929E+02 -1.9532E+02 -1.9141E+02 -1.8764E+02 -1.8410E+02 -1.8082E+02 -1.7784E+02 -1.7515E+02 -1.7275E+02 -1.7061E+02 -1.6872E+02 -1.6705E+02 -1.6558E+02 -1.6430E+02 -1.6318E+02 -1.6222E+02 -1.6139E+02 -1.6068E+02 -1.6008E+02 -1.5958E+02 -1.5916E+02 -1.5882E+02 -1.5855E+02 -1.5833E+02 -1.5816E+02 -1.5804E+02 -1.5797E+02 -1.5793E+02 -1.5793E+02 -1.5796E+02 -1.5803E+02 -1.5812E+02 -1.5824E+02 -1.5839E+02 -1.5856E+02 -1.5875E+02 -1.5896E+02 -1.5919E+02 -1.5944E+02 -1.5971E+02 -1.5999E+02 -1.6029E+02 -1.6061E+02 -1.6094E+02 -1.6129E+02 -1.6163E+02 -1.6200E+02 -1.6237E+02 -1.6277E+02
-1.0843E+02 -1.0840E+02 -1.0856E+02 -1.0900E+02 -1.0975E+02 -1.1041E+02 -1.1118E+02 -1.1201E+02 -1.1281E+02 -1.1351E+02 -1.1403E+02 -1.1430E+02 -1.1430E+02 -1.1402E+02 -1.1349E+02 -1.1279E+02 -1.1197E+02 -1.1113E+02 -1.1034E+02 -1.0965E+02 -1.0909E+02 -1.0867E+02 -1.0836E+02 -1.0816E+02 -1.0801E+02 -1.0790E+02 -1.0781E+02 -1.0772E+02 -1.0762E+02 -1.0751E+02 -1.0740E+02 -1.0728E+02 -1.0715E+02 -1.0702E+02 -1.0688E+02 -1.0673E+02 -1.0658E+02 -1.0642E+02 -1.0626E+02 -1.0609E+02 -1.0592E+02 -1.0575E+02 -1.0557E+02 -1.0539E+02 -1.0521E+02 -1.0502E+02 -1.0484E+02 -1.0465E+02 -1.0447E+02 -1.0428E+02 -1.0410E+02 -1.0392E+02 -1.0374E+02 -1.0357E+02 -1.0340E+02 -1.0324E+02 -1.0309E+02 -1.0294E+02 -1.0280E+02 -1.0268E+02 -1.0256E+02 -1.0245E+02 -1.0236E+02 -1.0228E+02 -1.0222E+02 -1.0217E+02 -1.0213E+02 -1.0211E+02 -1.0210E+02 -1.0211E+02 -1.0214E+02 -1.0218E+02 -1.0224E+02 -1.0232E+02 -1.0243E+02 -1.0256E+02 -1.0272E+02 -1.0292E+02 -1.0317E+02 -1.0347E+02 -1.0385E+02 -1.0434E+02 -1.0498E+02 -1.0580E+02 -1.0689E+02 -1.0829E+02 -1.1007E+02 -1.1228E+02 -1.1496E+02 -1.1812E+02 -1.2176E+02 -1.2586E+02 -1.3034E+02 -1.3516E+02 -1.4023E+02 -1.4545E+02 -1.5076E+02 -1.5606E+02 -1.6129E+02 -1.6636E+02 -1.7122E+02 -1.7583E+02 -1.8013E+02 -1.8409E+02 -1.8770E+02 -1.9095E+02 -1.9385E+02 -1.9642E+02 -1.9871E+02 -2.0074E+02 -2.0259E+02 -2.0430E+02 -2.0591E+02 -2.0749E+02 -2.0905E+02 -2.1063E+02 -2.1223E+02 -2.1383E+02 -2.1539E+02 -2.1686E+02 -2.1816E+02 -2.1917E+02 -2.1981E+02 -2.1996E+02 -2.1955E+02 -2.1851E+02 -2.1682E+02 -2.1449E+02 -2.1160E+02 -2.0821E+02 -2.0447E+02 -2.0049E+02 -1.9641E+02 -1.9236E+02 -1.8845E+02 -1.8475E+02 -1.8131E+02 -1.7818E+02 -1.7535E+02 -1.7282E+02 -1.7058E+02 -1.6860E+02 -1.6687E+02 -1.6535E+02 -1.6404E+02 -1.6290E+02 -1.6193E+02 -1.6111E+02 -1.6042E+02 -1.5984E+02 -1.5936E+02 -1.5897E+02 -1.5866E+02 -1.5841E+02 -1.5822E+02 -1.5808E+02 -1.5799E+02 -1.5794E+02 -1.5792E+02 -1.5795E+02 -1.5800E+02 -1.5809E+02 -1.5820E+02 -1.5834E+02 -1.5851E+02 -1.5870E+02 -1.5890E+02 -1.5913E+02 -1.5938E+02 -1.5964E+02 -1.5993E+02 -1.6022E+02 -1.6054E+02 -1.6087E+02 -1.6121E+02 -1.6157E+02 -1.6192E+02 -1.6230E+02 -1.6268E+02 -1.6309E+02
-1.0914E+02 -1.0912E+02 -1.0930E+02 -1.0977E+02 -1.1060E+02 -1.1133E+02 -1.1218E+02 -1.1312E+02 -1.1403E+02 -1.1484E+02 -1.1547E+02 -1.1582E+02 -1.1588E+02 -1.1562E+02 -1.1509E+02 -1.1433E+02 -1.1345E+02 -1.1253E+02 -1.1164E+02 -1.1086E+02 -1.1022E+02 -1.0973E+02 -1.0939E+02 -1.0915E+02 -1.0898E+02 -1.0887E+02 -1.0876E+02 -1.0867E+02 -1.0856E+02 -1.0845E+02 -1.0833E+02 -1.0821E+02 -1.0807E+02 -1.0793E+02 -1.0778E+02 -1.0763E+02 -1.0746E+02 -1.0730E+02 -1.0712E+02 -1.0695E+02 -1.0677E+02 -1.0658E+02 -1.0639E+02 -1.0620E+02 -1.0600E+02 -1.0581E+02 -1.0561E+02 -1.0541E+02 -1.0522E+02 -1.0502E+02 -1.0482E+02 -1.0463E+02 -1.0444E+02 -1.0426E+02 -1.0408E+02 -1.0390E+02 -1.0374E+02 -1.0358E+02 -1.0343E+02 -1.0329E+02 -1.0316E+02 -1.0304E+02 -1.0294E+02 -1.0285E+02 -1.0278E+02 -1.0272E+02 -1.0268E+02 -1.0266E+02 -1.0265E+02 -1.0267E+02 -1.0270E+02 -1.0275E+02 -1.0282E+02 -1.0291E+02 -1.0303E+02 -1.0317E+02 -1.0335E+02 -1.0357E+02 -1.0384E+02 -1.0416E+02 -1.0456E+02 -1.0507E+02 -1.0571E+02 -1.0654E+02 -1.0761E+02 -1.0899E+02 -1.1073E+02 -1.1289E+02 -1.1550E+02 -1.1857E+02 -1.2211E+02 -1.2608E+02 -1.3043E+02 -1.3509E+02 -1.3999E+02 -1.4504E+02 -1.5016E+02 -1.5527E+02 -1.6031E+02 -1.6519E+02 -1.6988E+02 -1.7432E+02 -1.7848E+02 -1.8232E+02 -1.8583E+02 -1.8901E+02 -1.9186E+02 -1.9442E+02 -1.9671E+02 -1.9878E+02 -2.0069E+02 -2.0248E+02 -2.0421E+02 -2.0591E+02 -2.0762E+02 -2.0937E+02 -2.1115E+02 -2.1295E+02 -2.1474E+02 -2.1644E+02 -2.1798E+02 -2.1924E+02 -2.2012E+02 -2.2050E+02 -2.2029E+02 -2.1943E+02 -2.1788E+02 -2.1565E+02 -2.1281E+02 -2.0944E+02 -2.0566E+02 -2.0162E+02 -1.9744E+02 -1.9326E+02 -1.8920E+02 -1.8535E+02 -1.8176E+02 -1.7847E+02 -1.7550E+02 -1.7284E+02 -1.7048E+02 -1.6841E+02 -1.6660E+02 -1.6504E+02 -1.6369E+02 -1.6254E+02 -1.6157E+02 -1.6076E+02 -1.6009E+02 -1.5954E+02 -1.5909E+02 -1.5873E+02 -1.5845E+02 -1.5824E+02 -1.5808E+02 -1.5797E+02 -1.5791E+02 -1.5789E+02 -1.5791E+02 -1.5796E+02 -1.5804E+02 -1.5815E+02 -1.5828E+02 -1.5845E+02 -1.5863E+02 -1.5884E+02 -1.5906E+02 -1.5931E+02 -1.5957E+02 -1.5985E+02 -1.6015E+02 -1.6046E+02 -1.6079E+02 -1.6113E+02 -1.6148E+02 -1.6185E+02 -1.6222E+02 -1.6260E+02 -1.6299E+02 -1.6340E+02
-1.0987E+02 -1.0986E+02 -1.1006E+02 -1.1057E+02 -1.1147E+02 -1.1227E+02 -1.1321E+02 -1.1424E+02 -1.1527E+02 -1.1620E+02 -1.1692E+02 -1.1737E+02 -1.1748E+02 -1.1725E+02 -1.1671E+02 -1.1591E+02 -1.1496E+02 -1.1396E+02 -1.1298E+02 -1.1211E+02 -1.1139E+02 -1.1084E+02 -1.1045E+02 -1.1017E+02 -1.0999E+02 -1.0986E+02 -1.0975E+02 -1.0964E+02 -1.0954E+02 -1.0942E+02 -1.0929E+02 -1.0916E+02 -1.0902E+02 -1.0886E+02 -1.0871E+02 -1.0854E+02 -1.0837E+02 -1.0819E+02 -1.0801E+02 -1.0782E+02 -1.0763E+02 -1.0743E+02 -1.0723E+02 -1.0703E+02 -1.0682E+02 -1.0661E+02 -1.0640E+02 -1.0619E+02 -1.0598E+02 -1.0577E+02 -1.0557E+02 -1.0536E+02 -1.0516E+02 -1.0496E+02 -1.0476E+02 -1.0458E+02 -1.0439E+02 -1.0422E+02 -1.0406E+02 -1.0391E+02 -1.0376E+02 -1.0364E+02 -1.0352E+02 -1.0343E+02 -1.0334E+02 -1.0328E+02 -1.0324E+02 -1.0321E+02 -1.0320E+02 -1.0321E+02 -1.0325E+02 -1.0330E+02 -1.0338E+02 -1.0349E+02 -1.0362E+02 -1.0378E+02 -1.0398E+02 -1.0421E+02 -1.0450E+02 -1.0484E+02 -1.0525E+02 -1.0577E+02 -1.0642E+02 -1.0724E+02 -1.0831E+02 -1.0966E+02 -1.1137E+02 -1.1347E+02 -1.1602E+02 -1.1901E+02 -1.2244E+02 -1.2629E+02 -1.3050E+02 -1.3501E+02 -1.3974E+02 -1.4462E+02 -1.4955E+02 -1.5448E+02 -1.5932E+02 -1.6402E+02 -1.6854E+02 -1.7281E+02 -1.7682E+02 -1.8053E+02 -1.8394E+02 -1.8704E+02 -1.8985E+02 -1.9238E+02 -1.9468E+02 -1.9679E+02 -1.9876E+02 -2.0064E+02 -2.0247E+02 -2.0430E+02 -2.0616E+02 -2.0807E+02 -2.1004E+02 -2.1204E+02 -2.1404E+02 -2.1597E+02 -2.1773E+02 -2.1923E+02 -2.2033E+02 -2.2093E+02 -2.2092E+02 -2.2023E+02 -2.1882E+02 -2.1670E+02 -2.1392E+02 -2.1057E+02 -2.0677E+02 -2.0267E+02 -1.9841E+02 -1.9412E+02 -1.8992E+02 -1.8592E+02 -1.8217E+02 -1.7872E+02 -1.7560E+02 -1.7281E+02 -1.7033E+02 -1.6816E+02 -1.6627E+02 -1.6465E+02 -1.6327E+02 -1.6210E+02 -1.6114E+02 -1.6034E+02 -1.5969E+02 -1.5918E+02 -1.5877E+02 -1.5845E+02 -1.5821E+02 -1.5804E+02 -1.5792E+02 -1.5785E+02 -1.5782E+02 -1.5783E+02 -1.5788E+02 -1.5796E+02 -1.5807E+02 -1.5820E+02 -1.5836E+02 -1.5855E+02 -1.5875E+02 -1.5898E+02 -1.5923E+02 -1.5949E+02 -1.5977E+02 -1.6006E+02 -1.6038E+02 -1.6070E+02 -1.6104E+02 -1.6140E+02 -1.6176E+02 -1.6214E+02 -1.6251E+02 -1.6290E+02 -1.6331E+02 -1.6372E+02
-1.1061E+02 -1.1064E+02 -1.1086E+02 -1.1141E+02 -1.1238E+02 -1.1324E+02 -1.1427E+02 -1.1541E+02 -1.1654E+02 -1.1757E+02 -1.1840E+02 -1.1893E+02 -1.1910E+02 -1.1890E+02 -1.1835E+02 -1.1752E+02 -1.1651E+02 -1.1542E+02 -1.1435E+02 -1.1340E+02 -1.1260E+02 -1.1199E+02 -1.1154E+02 -1.1123E+02 -1.1103E+02 -1.1088E+02 -1.1076E+02 -1.1065E+02 -1.1054E+02 -1.1041E+02 -1.1028E+02 -1.1014E+02 -1.0998E+02 -1.0982E+02 -1.0966E+02 -1.0948E+02 -1.0930E+02 -1.0911E+02 -1.0892E+02 -1.0872E+02 -1.0851E+02 -1.0831E+02 -1.0809E+02 -1.0788E+02 -1.0766E+02 -1.0744E+02 -1.0721E+02 -1.0699E+02 -1.0677E+02 -1.0654E+02 -1.0632E+02 -1.0610E+02 -1.0588E+02 -1.0567E+02 -1.0546E+02 -1.0526E+02 -1.0507E+02 -1.0488E+02 -1.0470E+02 -1.0453E+02 -1.0438E+02 -1.0424E+02 -1.0411E+02 -1.0401E+02 -1.0391E+02 -1.0384E+02 -1.0379E+02 -1.0376E+02 -1.0375E+02 -1.0376E+02 -1.0380E+02 -1.0386E+02 -1.0394E+02 -1.0406E+02 -1.0420E+02 -1.0438E+02 -1.0459E+02 -1.0484E+02 -1.0514E+02 -1.0550E+02 -1.0593E+02 -1.0645E+02 -1.0710E+02 -1.0793E+02 -1.0898E+02 -1.1032E+02 -1.1199E+02 -1.1404E+02 -1.1652E+02 -1.1943E+02 -1.2276E+02 -1.2649E+02 -1.3056E+02 -1.3492E+02 -1.3949E+02 -1.4419E+02 -1.4894E+02 -1.5368E+02 -1.5833E+02 -1.6285E+02 -1.6719E+02 -1.7130E+02 -1.7516E+02 -1.7875E+02 -1.8206E+02 -1.8508E+02 -1.8784E+02 -1.9036E+02 -1.9268E+02 -1.9483E+02 -1.9686E+02 -1.9883E+02 -2.0077E+02 -2.0273E+02 -2.0474E+02 -2.0681E+02 -2.0895E+02 -2.1114E+02 -2.1334E+02 -2.1548E+02 -2.1746E+02 -2.1917E+02 -2.2048E+02 -2.2128E+02 -2.2146E+02 -2.2093E+02 -2.1966E+02 -2.1764E+02 -2.1493E+02 -2.1161E+02 -2.0781E+02 -2.0366E+02 -1.9932E+02 -1.9493E+02 -1.9061E+02 -1.8646E+02 -1.8257E+02 -1.7897E+02 -1.7569E+02 -1.7275E+02 -1.7015E+02 -1.6787E+02 -1.6590E+02 -1.6421E+02 -1.6279E+02 -1.6161E+02 -1.6064E+02 -1.5987E+02 -1.5925E+02 -1.5877E+02 -1.5841E+02 -1.5813E+02 -1.5794E+02 -1.5781E+02 -1.5773E+02 -1.5771E+02 -1.5772E+02 -1.5776E+02 -1.5784E+02 -1.5795E+02 -1.5809E+02 -1.5826E+02 -1.5844E+02 -1.5865E+02 -1.5888E+02 -1.5913E+02 -1.5939E+02 -1.5968E+02 -1.5997E+02 -1.6029E+02 -1.6061E+02 -1.6095E+02 -1.6130E+02 -1.6167E+02 -1.6204E+02 -1.6243E+02 -1.6281E+02 -1.6321E+02 -1.6362E+02 -1.6404E+02
-1.1140E+02 -1.1145E+02 -1.1171E+02 -1.1231E+02 -1.1334E+02 -1.1428E+02 -1.1539E+02 -1.1662E+02 -1.1786E+02 -1.1900E+02 -1.1992E+02 -1.2052E+02 -1.2075E+02 -1.2057E+02 -1.2001E+02 -1.1915E+02 -1.1807E+02 -1.1691E+02 -1.1576E+02 -1.1472E+02 -1.1384E+02 -1.1316E+02 -1.1267E+02 -1.1233E+02 -1.1210E+02 -1.1194E+02 -1.1181E+02 -1.1169E+02 -1.1157E+02 -1.1143E+02 -1.1129E+02 -1.1114E+02 -1.1098E+02 -1.1081E+02 -1.1063E+02 -1.1045E+02 -1.1025E+02 -1.1005E+02 -1.0985E+02 -1.0964E+02 -1.0942E+02 -1.0920E+02 -1.0897E+02 -1.0874E+02 -1.0851E+02 -1.0828E+02 -1.0804E+02 -1.0780E+02 -1.0757E+02 -1.0733E+02 -1.0709E+02 -1.0686E+02 -1.0663E+02 -1.0640E+02 -1.0617E+02 -1.0596E+02 -1.0575E+02 -1.0555E+02 -1.0535E+02 -1.0517E+02 -1.0501E+02 -1.0485E+02 -1.0471E+02 -1.0459E+02 -1.0449E+02 -1.0441E+02 -1.0434E+02 -1.0431E+02 -1.0429E+02 -1.0430E+02 -1.0434E+02 -1.0440E+02 -1.0450E+02 -1.0462E+02 -1.0477E+02 -1.0496E+02 -1.0519E+02 -1.0545E+02 -1.0577E+02 -1.0614E+02 -1.0658E+02 -1.0711E+02 -1.0777E+02 -1.0859E+02 -1.0964E+02 -1.1095E+02 -1.1258E+02 -1.1459E+02 -1.1700E+02 -1.1983E+02 -1.2306E+02 -1.2667E+02 -1.3061E+02 -1.3481E+02 -1.3922E+02 -1.4374E+02 -1.4831E+02 -1.5286E+02 -1.5733E+02 -1.6167E+02 -1.6584E+02 -1.6979E+02 -1.7351E+02 -1.7699E+02 -1.8020E+02 -1.8316E+02 -1.8589E+02 -1.8840E+02 -1.9074E+02 -1.9294E+02 -1.9504E+02 -1.9710E+02 -1.9916E+02 -2.0125E+02 -2.0340E+02 -2.0563E+02 -2.0794E+02 -2.1031E+02 -2.1270E+02 -2.1503E+02 -2.1720E+02 -2.1910E+02 -2.2061E+02 -2.2159E+02 -2.2194E+02 -2.2156E+02 -2.2041E+02 -2.1849E+02 -2.1585E+02 -2.1257E+02 -2.0877E+02 -2.0460E+02 -2.0020E+02 -1.9572E+02 -1.9129E+02 -1.8701E+02 -1.8297E+02 -1.7922E+02 -1.7579E+02 -1.7271E+02 -1.6997E+02 -1.6758E+02 -1.6551E+02 -1.6375E+02 -1.6228E+02 -1.6108E+02 -1.6011E+02 -1.5935E+02 -1.5877E+02 -1.5833E+02 -1.5801E+02 -1.5779E+02 -1.5765E+02 -1.5757E+02 -1.5754E+02 -1.5755E+02 -1.5761E+02 -1.5769E+02 -1.5781E+02 -1.5795E+02 -1.5812E+02 -1.5832E+02 -1.5853E+02 -1.5876E+02 -1.5902E+02 -1.5929E+02 -1.5957E+02 -1.5987E+02 -1.6019E+02 -1.6051E+02 -1.6086E+02 -1.6121E+02 -1.6157E+02 -1.6195E+02 -1.6233E+02 -1.6273E+02 -1.6312E+02 -1.6352E+02 -1.6394E+02 -1.6436E+02
-1.1225E+02 -1.1233E+02 -1.1263E+02 -1.1327E+02 -1.1438E+02 -1.1538E+02 -1.1658E+02 -1.1790E+02 -1.1924E+02 -1.2047E+02 -1.2148E+02 -1.2216E+02 -1.2243E+02 -1.2227E+02 -1.2170E+02 -1.2079E+02 -1.1966E+02 -1.1841E+02 -1.1718E+02 -1.1606E+02 -1.1511E+02 -1.1437E+02 -1.1383E+02 -1.1346E+02 -1.1320E+02 -1.1303E+02 -1.1289E+02 -1.1276E+02 -1.1263E+02 -1.1249E+02 -1.1233E+02 -1.1217E+02 -1.1200E+02 -1.1182E+02 -1.1163E+02 -1.1144E+02 -1.1123E+02 -1.1102E+02 -1.1080E+02 -1.1058E+02 -1.1035E+02 -1.1011E+02 -1.0987E+02 -1.0963E+02 -1.0939E+02 -1.0914E+02 -1.0889E+02 -1.0863E+02 -1.0838E+02 -1.0813E+02 -1.0788E+02 -1.0763E+02 -1.0738E+02 -1.0714E+02 -1.0690E+02 -1.0667E+02 -1.0644E+02 -1.0622E+02 -1.0602E+02 -1.0582E+02 -1.0564E+02 -1.0547E+02 -1.0532E+02 -1.0518E+02 -1.0507E+02 -1.0497E+02 -1.0490E+02 -1.0486E+02 -1.0484E+02 -1.0484E+02 -1.0488E+02 -1.0494E+02 -1.0504E+02 -1.0517E+02 -1.0533E+02 -1.0553E+02 -1.0577E+02 -1.0605E+02 -1.0638E+02 -1.0677E+02 -1.0722E+02 -1.0776E+02 -1.0842E+02 -1.0924E+02 -1.1027E+02 -1.1156E+02 -1.1316E+02 -1.1512E+02 -1.1747E+02 -1.2021E+02 -1.2334E+02 -1.2683E+02 -1.3063E+02 -1.3469E+02 -1.3892E+02 -1.4327E+02 -1.4766E+02 -1.5203E+02 -1.5632E+02 -1.6049E+02 -1.6449E+02 -1.6830E+02 -1.7189E+02 -1.7526E+02 -1.7840E+02 -1.8131E+02 -1.8401E+02 -1.8653E+02 -1.8890E+02 -1.9116E+02 -1.9335E+02 -1.9551E+02 -1.9769E+02 -1.9991E+02 -2.0220E+02 -2.0459E+02 -2.0706E+02 -2.0959E+02 -2.1214E+02 -2.1465E+02 -2.1699E+02 -2.1907E+02 -2.2075E+02 -2.2189E+02 -2.2239E+02 -2.2215E+02 -2.2111E+02 -2.1929E+02 -2.1671E+02 -2.1347E+02 -2.0969E+02 -2.0550E+02 -2.0105E+02 -1.9650E+02 -1.9198E+02 -1.8758E+02 -1.8341E+02 -1.7952E+02 -1.7594E+02 -1.7271E+02 -1.6984E+02 -1.6732E+02 -1.6515E+02 -1.6331E+02 -1.6178E+02 -1.6055E+02 -1.5958E+02 -1.5883E+02 -1.5827E+02 -1.5787E+02 -1.5760E+02 -1.5743E+02 -1.5734E+02 -1.5731E+02 -1.5734E+02 -1.5740E+02 -1.5750E+02 -1.5762E+02 -1.5778E+02 -1.5796E+02 -1.5816E+02 -1.5838E+02 -1.5863E+02 -1.5889E+02 -1.5916E+02 -1.5945E+02 -1.5976E+02 -1.6008E+02 -1.6041E+02 -1.6076E+02 -1.6111E+02 -1.6148E+02 -1.6185E+02 -1.6224E+02 -1.6263E+02 -1.6303E+02 -1.6343E+02 -1.6384E+02 -1.6426E+02 -1.6468E+02
