-4.9248E+02 -4.9313E+02 -4.9421E+02 -4.9531E+02 -4.9636E+02 -4.9729E+02 -4.9816E+02 -4.9900E+02 -4.9974E+02 -5.0033E+02 -5.0076E+02 -5.0103E+02 -5.0112E+02 -5.0103E+02 -5.0077E+02 -5.0034E+02 -4.9977E+02 -4.9908E+02 -4.9830E+02 -4.9744E+02 -4.9655E+02 -4.9564E+02 -4.9473E+02 -4.9386E+02 -4.9302E+02 -4.9224E+02 -4.9151E+02 -4.9084E+02 -4.9023E+02 -4.8966E+02 -4.8914E+02 -4.8866E+02 -4.8820E+02 -4.8777E+02 -4.8736E+02 -4.8695E+02 -4.8655E+02 -4.8616E+02 -4.8576E+02 -4.8536E+02 -4.8496E+02 -4.8456E+02 -4.8415E+02 -4.8374E+02 -4.8333E+02 -4.8292E+02 -4.8250E+02 -4.8208E+02 -4.8166E+02 -4.8123E+02 -4.8081E+02 -4.8040E+02 -4.7998E+02 -4.7957E+02 -4.7916E+02 -4.7877E+02 -4.7838E+02 -4.7800E+02 -4.7764E+02 -4.7729E+02 -4.7696E+02 -4.7664E+02 -4.7635E+02 -4.7609E+02 -4.7585E+02 -4.7564E+02 -4.7547E+02 -4.7533E+02 -4.7523E+02 -4.7517E+02 -4.7517E+02 -4.7521E+02 -4.7530E+02 -4.7545E+02 -4.7567E+02 -4.7595E+02 -4.7632E+02 -4.7676E+02 -4.7730E+02 -4.7795E+02 -4.7871E+02 -4.7959E+02 -4.8062E+02 -4.8179E+02 -4.8312E+02 -4.8463E+02 -4.8631E+02 -4.8817E+02 -4.9022E+02 -4.9245E+02 -4.9485E+02 -4.9743E+02 -5.0016E+02 -5.0302E+02 -5.0601E+02 -5.0909E+02 -5.1226E+02 -5.1548E+02 -5.1873E+02 -5.2200E+02 -5.2527E+02 -5.2852E+02 -5.3174E+02 -5.3492E+02 -5.3807E+02 -5.4117E+02 -5.4423E+02 -5.4725E+02 -5.5024E+02 -5.5320E+02 -5.5614E+02 -5.5905E+02 -5.6193E+02 -5.6478E+02 -5.6759E+02 -5.7032E+02 -5.7296E+02 -5.7548E+02 -5.7784E+02 -5.7999E+02 -5.8191E+02 -5.8354E+02 -5.8484E+02 -5.8578E+02 -5.8632E+02 -5.8645E+02 -5.8614E+02 -5.8540E+02 -5.8422E+02 -5.8263E+02 -5.8065E+02 -5.7831E+02 -5.7567E+02 -5.7276E+02 -5.6965E+02 -5.6638E+02 -5.6301E+02 -5.5959E+02 -5.5618E+02 -5.5282E+02 -5.4956E+02 -5.4643E+02 -5.4347E+02 -5.4070E+02 -5.3815E+02 -5.3582E+02 -5.3374E+02 -5.3190E+02 -5.3030E+02 -5.2894E+02 -5.2782E+02 -5.2690E+02 -5.2619E+02 -5.2566E+02 -5.2530E+02 -5.2508E+02 -5.2499E+02 -5.2501E+02 -5.2511E+02 -5.2529E+02 -5.2553E+02 -5.2581E+02 -5.2612E+02 -5.2646E+02 -5.2682E+02 -5.2719E+02 -5.2757E+02 -5.2795E+02 -5.2834E+02 -5.2873E+02 -5.2912E+02 -5.2951E+02 -5.2989E+02 -5.3028E+02 -5.3067E+02 -5.3106E+02 -5.3145E+02 -5.3184E+02 -5.3223E+02 -5.3262E+02
-4.9456E+02 -4.9521E+02 -4.9630E+02 -4.9743E+02 -4.9849E+02 -4.9944E+02 -5.0032E+02 -5.0118E+02 -5.0193E+02 -5.0253E+02 -5.0297E+02 -5.0324E+02 -5.0333E+02 -5.0324E+02 -5.0297E+02 -5.0253E+02 -5.0194E+02 -5.0122E+02 -5.0040E+02 -4.9951E+02 -4.9857E+02 -4.9762E+02 -4.9666E+02 -4.9574E+02 -4.9485E+02 -4.9401E+02 -4.9323E+02 -4.9250E+02 -4.9183E+02 -4.9122E+02 -4.9065E+02 -4.9012E+02 -4.8962E+02 -4.8915E+02 -4.8870E+02 -4.8826E+02 -4.8783E+02 -4.8740E+02 -4.8698E+02 -4.8655E+02 -4.8613E+02 -4.8570E+02 -4.8527E+02 -4.8484E+02 -4.8440E+02 -4.8396E+02 -4.8352E+02 -4.8307E+02 -4.8263E+02 -4.8218E+02 -4.8174E+02 -4.8130E+02 -4.8086E+02 -4.8042E+02 -4.7999E+02 -4.7957E+02 -4.7916E+02 -4.7876E+02 -4.7837E+02 -4.7800E+02 -4.7764E+02 -4.7731E+02 -4.7700E+02 -4.7671E+02 -4.7645E+02 -4.7622E+02 -4.7603E+02 -4.7587E+02 -4.7576E+02 -4.7569E+02 -4.7567E+02 -4.7570E+02 -4.7579E+02 -4.7593E+02 -4.7615E+02 -4.7643E+02 -4.7680E+02 -4.7725E+02 -4.7780E+02 -4.7845E+02 -4.7922E+02 -4.8012E+02 -4.8115E+02 -4.8234E+02 -4.8369E+02 -4.8520E+02 -4.8689E+02 -4.8876E+02 -4.9082E+02 -4.9305E+02 -4.9546E+02 -4.9803E+02 -5.0075E+02 -5.0361E+02 -5.0659E+02 -5.0966E+02 -5.1282E+02 -5.1602E+02 -5.1927E+02 -5.2252E+02 -5.2578E+02 -5.2902E+02 -5.3223E+02 -5.3540E+02 -5.3854E+02 -5.4163E+02 -5.4469E+02 -5.4771E+02 -5.5070E+02 -5.5367E+02 -5.5661E+02 -5.5953E+02 -5.6243E+02 -5.6529E+02 -5.6811E+02 -5.7087E+02 -5.7354E+02 -5.7609E+02 -5.7848E+02 -5.8068E+02 -5.8265E+02 -5.8433E+02 -5.8570E+02 -5.8670E+02 -5.8732E+02 -5.8752E+02 -5.8729E+02 -5.8663E+02 -5.8554E+02 -5.8402E+02 -5.8212E+02 -5.7986E+02 -5.7728E+02 -5.7442E+02 -5.7135E+02 -5.6811E+02 -5.6475E+02 -5.6134E+02 -5.5792E+02 -5.5453E+02 -5.5123E+02 -5.4804E+02 -5.4502E+02 -5.4217E+02 -5.3953E+02 -5.3712E+02 -5.3494E+02 -5.3301E+02 -5.3132E+02 -5.2987E+02 -5.2865E+02 -5.2766E+02 -5.2688E+02 -5.2628E+02 -5.2586E+02 -5.2560E+02 -5.2547E+02 -5.2545E+02 -5.2553E+02 -5.2569E+02 -5.2591E+02 -5.2618E+02 -5.2649E+02 -5.2683E+02 -5.2718E+02 -5.2755E+02 -5.2793E+02 -5.2831E+02 -5.2870E+02 -5.2908E+02 -5.2947E+02 -5.2986E+02 -5.3025E+02 -5.3063E+02 -5.3102E+02 -5.3141E+02 -5.3179E+02 -5.3218E+02 -5.3256E+02 -5.3295E+02
-4.9673E+02 -4.9738E+02 -4.9849E+02 -4.9962E+02 -5.0070E+02 -5.0166E+02 -5.0256E+02 -5.0343E+02 -5.0419E+02 -5.0480E+02 -5.0525E+02 -5.0552E+02 -5.0561E+02 -5.0552E+02 -5.0524E+02 -5.0479E+02 -5.0418E+02 -5.0344E+02 -5.0260E+02 -5.0167E+02 -5.0069E+02 -4.9969E+02 -4.9868E+02 -4.9770E+02 -4.9676E+02 -4.9586E+02 -4.9502E+02 -4.9423E+02 -4.9351E+02 -4.9284E+02 -4.9221E+02 -4.9164E+02 -4.9109E+02 -4.9058E+02 -4.9008E+02 -4.8960E+02 -4.8914E+02 -4.8868E+02 -4.8823E+02 -4.8777E+02 -4.8732E+02 -4.8687E+02 -4.8641E+02 -4.8595E+02 -4.8549E+02 -4.8502E+02 -4.8456E+02 -4.8409E+02 -4.8362E+02 -4.8315E+02 -4.8268E+02 -4.8221E+02 -4.8175E+02 -4.8129E+02 -4.8083E+02 -4.8039E+02 -4.7995E+02 -4.7952E+02 -4.7911E+02 -4.7871E+02 -4.7833E+02 -4.7798E+02 -4.7764E+02 -4.7733E+02 -4.7705E+02 -4.7680E+02 -4.7659E+02 -4.7641E+02 -4.7628E+02 -4.7620E+02 -4.7616E+02 -4.7618E+02 -4.7626E+02 -4.7640E+02 -4.7662E+02 -4.7690E+02 -4.7727E+02 -4.7773E+02 -4.7828E+02 -4.7895E+02 -4.7973E+02 -4.8065E+02 -4.8170E+02 -4.8291E+02 -4.8427E+02 -4.8581E+02 -4.8752E+02 -4.8941E+02 -4.9148E+02 -4.9373E+02 -4.9615E+02 -4.9873E+02 -5.0146E+02 -5.0433E+02 -5.0731E+02 -5.1038E+02 -5.1353E+02 -5.1674E+02 -5.1997E+02 -5.2322E+02 -5.2647E+02 -5.2970E+02 -5.3290E+02 -5.3607E+02 -5.3920E+02 -5.4228E+02 -5.4533E+02 -5.4835E+02 -5.5133E+02 -5.5429E+02 -5.5723E+02 -5.6015E+02 -5.6305E+02 -5.6592E+02 -5.6875E+02 -5.7152E+02 -5.7420E+02 -5.7677E+02 -5.7920E+02 -5.8143E+02 -5.8344E+02 -5.8517E+02 -5.8659E+02 -5.8766E+02 -5.8834E+02 -5.8862E+02 -5.8847E+02 -5.8789E+02 -5.8687E+02 -5.8545E+02 -5.8362E+02 -5.8144E+02 -5.7893E+02 -5.7613E+02 -5.7311E+02 -5.6991E+02 -5.6658E+02 -5.6318E+02 -5.5975E+02 -5.5634E+02 -5.5300E+02 -5.4977E+02 -5.4669E+02 -5.4377E+02 -5.4105E+02 -5.3855E+02 -5.3628E+02 -5.3424E+02 -5.3246E+02 -5.3091E+02 -5.2961E+02 -5.2853E+02 -5.2766E+02 -5.2700E+02 -5.2652E+02 -5.2620E+02 -5.2602E+02 -5.2596E+02 -5.2601E+02 -5.2614E+02 -5.2634E+02 -5.2660E+02 -5.2689E+02 -5.2722E+02 -5.2757E+02 -5.2793E+02 -5.2831E+02 -5.2869E+02 -5.2907E+02 -5.2945E+02 -5.2984E+02 -5.3022E+02 -5.3061E+02 -5.3099E+02 -5.3137E+02 -5.3175E+02 -5.3214E+02 -5.3252E+02 -5.3290E+02 -5.3328E+02
-4.9898E+02 -4.9963E+02 -5.0074E+02 -5.0189E+02 -5.0297E+02 -5.0395E+02 -5.0486E+02 -5.0574E+02 -5.0651E+02 -5.0713E+02 -5.0759E+02 -5.0787E+02 -5.0797E+02 -5.0788E+02 -5.0760E+02 -5.0713E+02 -5.0651E+02 -5.0575E+02 -5.0488E+02 -5.0392E+02 -5.0290E+02 -5.0185E+02 -5.0079E+02 -4.9976E+02 -4.9875E+02 -4.9779E+02 -4.9689E+02 -4.9604E+02 -4.9526E+02 -4.9452E+02 -4.9384E+02 -4.9321E+02 -4.9261E+02 -4.9205E+02 -4.9151E+02 -4.9099E+02 -4.9049E+02 -4.8999E+02 -4.8951E+02 -4.8902E+02 -4.8854E+02 -4.8806E+02 -4.8757E+02 -4.8709E+02 -4.8660E+02 -4.8611E+02 -4.8561E+02 -4.8512E+02 -4.8462E+02 -4.8413E+02 -4.8363E+02 -4.8314E+02 -4.8265E+02 -4.8216E+02 -4.8168E+02 -4.8121E+02 -4.8075E+02 -4.8029E+02 -4.7986E+02 -4.7943E+02 -4.7903E+02 -4.7864E+02 -4.7828E+02 -4.7795E+02 -4.7764E+02 -4.7737E+02 -4.7714E+02 -4.7695E+02 -4.7680E+02 -4.7670E+02 -4.7665E+02 -4.7666E+02 -4.7672E+02 -4.7686E+02 -4.7707E+02 -4.7735E+02 -4.7773E+02 -4.7819E+02 -4.7876E+02 -4.7944E+02 -4.8024E+02 -4.8118E+02 -4.8226E+02 -4.8349E+02 -4.8489E+02 -4.8645E+02 -4.8819E+02 -4.9011E+02 -4.9221E+02 -4.9449E+02 -4.9693E+02 -4.9953E+02 -5.0228E+02 -5.0516E+02 -5.0816E+02 -5.1124E+02 -5.1440E+02 -5.1761E+02 -5.2084E+02 -5.2409E+02 -5.2734E+02 -5.3056E+02 -5.3376E+02 -5.3691E+02 -5.4003E+02 -5.4311E+02 -5.4614E+02 -5.4915E+02 -5.5212E+02 -5.5507E+02 -5.5799E+02 -5.6090E+02 -5.6379E+02 -5.6665E+02 -5.6948E+02 -5.7225E+02 -5.7494E+02 -5.7752E+02 -5.7996E+02 -5.8222E+02 -5.8426E+02 -5.8603E+02 -5.8750E+02 -5.8863E+02 -5.8938E+02 -5.8973E+02 -5.8965E+02 -5.8915E+02 -5.8823E+02 -5.8688E+02 -5.8515E+02 -5.8304E+02 -5.8061E+02 -5.7788E+02 -5.7492E+02 -5.7176E+02 -5.6847E+02 -5.6508E+02 -5.6166E+02 -5.5824E+02 -5.5488E+02 -5.5160E+02 -5.4846E+02 -5.4548E+02 -5.4268E+02 -5.4009E+02 -5.3773E+02 -5.3560E+02 -5.3372E+02 -5.3207E+02 -5.3067E+02 -5.2950E+02 -5.2855E+02 -5.2781E+02 -5.2726E+02 -5.2687E+02 -5.2664E+02 -5.2654E+02 -5.2654E+02 -5.2664E+02 -5.2682E+02 -5.2705E+02 -5.2733E+02 -5.2764E+02 -5.2798E+02 -5.2834E+02 -5.2870E+02 -5.2908E+02 -5.2945E+02 -5.2983E+02 -5.3021E+02 -5.3059E+02 -5.3097E+02 -5.3135E+02 -5.3173E+02 -5.3211E+02 -5.3248E+02 -5.3286E+02 -5.3323E+02 -5.3360E+02
-5.0131E+02 -5.0196E+02 -5.0307E+02 -5.0422E+02 -5.0531E+02 -5.0630E+02 -5.0721E+02 -5.0810E+02 -5.0888E+02 -5.0952E+02 -5.0999E+02 -5.1027E+02 -5.1038E+02 -5.1029E+02 -5.1001E+02 -5.0955E+02 -5.0892E+02 -5.0814E+02 -5.0724E+02 -5.0625E+02 -5.0519E+02 -5.0410E+02 -5.0300E+02 -5.0190E+02 -5.0084E+02 -4.9981E+02 -4.9884E+02 -4.9793E+02 -4.9708E+02 -4.9628E+02 -4.9554E+02 -4.9484E+02 -4.9419E+02 -4.9357E+02 -4.9299E+02 -4.9242E+02 -4.9188E+02 -4.9134E+02 -4.9082E+02 -4.9030E+02 -4.8979E+02 -4.8927E+02 -4.8876E+02 -4.8825E+02 -4.8773E+02 -4.8721E+02 -4.8669E+02 -4.8617E+02 -4.8565E+02 -4.8512E+02 -4.8460E+02 -4.8408E+02 -4.8356E+02 -4.8305E+02 -4.8254E+02 -4.8204E+02 -4.8155E+02 -4.8107E+02 -4.8060E+02 -4.8015E+02 -4.7972E+02 -4.7931E+02 -4.7892E+02 -4.7856E+02 -4.7824E+02 -4.7794E+02 -4.7768E+02 -4.7747E+02 -4.7730E+02 -4.7718E+02 -4.7712E+02 -4.7711E+02 -4.7717E+02 -4.7730E+02 -4.7751E+02 -4.7779E+02 -4.7817E+02 -4.7865E+02 -4.7923E+02 -4.7993E+02 -4.8075E+02 -4.8172E+02 -4.8283E+02 -4.8410E+02 -4.8553E+02 -4.8713E+02 -4.8891E+02 -4.9087E+02 -4.9301E+02 -4.9532E+02 -4.9780E+02 -5.0044E+02 -5.0321E+02 -5.0612E+02 -5.0913E+02 -5.1224E+02 -5.1541E+02 -5.1862E+02 -5.2187E+02 -5.2512E+02 -5.2836E+02 -5.3158E+02 -5.3477E+02 -5.3792E+02 -5.4102E+02 -5.4408E+02 -5.4710E+02 -5.5009E+02 -5.5304E+02 -5.5597E+02 -5.5888E+02 -5.6176E+02 -5.6464E+02 -5.6748E+02 -5.7029E+02 -5.7305E+02 -5.7574E+02 -5.7833E+02 -5.8077E+02 -5.8305E+02 -5.8511E+02 -5.8692E+02 -5.8843E+02 -5.8961E+02 -5.9042E+02 -5.9084E+02 -5.9084E+02 -5.9042E+02 -5.8958E+02 -5.8833E+02 -5.8668E+02 -5.8466E+02 -5.8230E+02 -5.7965E+02 -5.7675E+02 -5.7365E+02 -5.7039E+02 -5.6704E+02 -5.6362E+02 -5.6020E+02 -5.5682E+02 -5.5352E+02 -5.5032E+02 -5.4728E+02 -5.4441E+02 -5.4174E+02 -5.3929E+02 -5.3707E+02 -5.3508E+02 -5.3334E+02 -5.3184E+02 -5.3058E+02 -5.2954E+02 -5.2871E+02 -5.2808E+02 -5.2763E+02 -5.2733E+02 -5.2717E+02 -5.2714E+02 -5.2720E+02 -5.2734E+02 -5.2754E+02 -5.2780E+02 -5.2809E+02 -5.2842E+02 -5.2876E+02 -5.2912E+02 -5.2948E+02 -5.2985E+02 -5.3023E+02 -5.3060E+02 -5.3097E+02 -5.3135E+02 -5.3172E+02 -5.3209E+02 -5.3246E+02 -5.3283E+02 -5.3320E+02 -5.3357E+02 -5.3393E+02
-5.0371E+02 -5.0435E+02 -5.0546E+02 -5.0661E+02 -5.0771E+02 -5.0870E+02 -5.0962E+02 -5.1052E+02 -5.1131E+02 -5.1195E+02 -5.1243E+02 -5.1273E+02 -5.1285E+02 -5.1277E+02 -5.1249E+02 -5.1203E+02 -5.1139E+02 -5.1060E+02 -5.0968E+02 -5.0867E+02 -5.0757E+02 -5.0644E+02 -5.0528E+02 -5.0413E+02 -5.0301E+02 -5.0192E+02 -5.0088E+02 -4.9989E+02 -4.9897E+02 -4.9810E+02 -4.9729E+02 -4.9654E+02 -4.9582E+02 -4.9515E+02 -4.9451E+02 -4.9390E+02 -4.9331E+02 -4.9273E+02 -4.9217E+02 -4.9161E+02 -4.9106E+02 -4.9052E+02 -4.8997E+02 -4.8943E+02 -4.8888E+02 -4.8834E+02 -4.8779E+02 -4.8724E+02 -4.8668E+02 -4.8613E+02 -4.8558E+02 -4.8503E+02 -4.8448E+02 -4.8394E+02 -4.8341E+02 -4.8288E+02 -4.8236E+02 -4.8185E+02 -4.8135E+02 -4.8088E+02 -4.8041E+02 -4.7998E+02 -4.7956E+02 -4.7918E+02 -4.7882E+02 -4.7850E+02 -4.7822E+02 -4.7798E+02 -4.7779E+02 -4.7765E+02 -4.7757E+02 -4.7755E+02 -4.7760E+02 -4.7772E+02 -4.7793E+02 -4.7821E+02 -4.7860E+02 -4.7908E+02 -4.7968E+02 -4.8041E+02 -4.8126E+02 -4.8226E+02 -4.8340E+02 -4.8471E+02 -4.8619E+02 -4.8784E+02 -4.8967E+02 -4.9168E+02 -4.9386E+02 -4.9622E+02 -4.9875E+02 -5.0142E+02 -5.0424E+02 -5.0718E+02 -5.1022E+02 -5.1335E+02 -5.1654E+02 -5.1977E+02 -5.2302E+02 -5.2628E+02 -5.2952E+02 -5.3274E+02 -5.3592E+02 -5.3905E+02 -5.4214E+02 -5.4519E+02 -5.4819E+02 -5.5115E+02 -5.5408E+02 -5.5698E+02 -5.5986E+02 -5.6272E+02 -5.6556E+02 -5.6839E+02 -5.7118E+02 -5.7392E+02 -5.7659E+02 -5.7917E+02 -5.8162E+02 -5.8390E+02 -5.8598E+02 -5.8782E+02 -5.8937E+02 -5.9059E+02 -5.9146E+02 -5.9194E+02 -5.9202E+02 -5.9169E+02 -5.9093E+02 -5.8976E+02 -5.8820E+02 -5.8627E+02 -5.8400E+02 -5.8143E+02 -5.7860E+02 -5.7555E+02 -5.7235E+02 -5.6902E+02 -5.6563E+02 -5.6222E+02 -5.5882E+02 -5.5549E+02 -5.5226E+02 -5.4916E+02 -5.4623E+02 -5.4348E+02 -5.4094E+02 -5.3863E+02 -5.3655E+02 -5.3471E+02 -5.3311E+02 -5.3175E+02 -5.3062E+02 -5.2970E+02 -5.2899E+02 -5.2846E+02 -5.2809E+02 -5.2788E+02 -5.2778E+02 -5.2780E+02 -5.2790E+02 -5.2807E+02 -5.2830E+02 -5.2858E+02 -5.2888E+02 -5.2921E+02 -5.2955E+02 -5.2990E+02 -5.3026E+02 -5.3063E+02 -5.3099E+02 -5.3136E+02 -5.3172E+02 -5.3209E+02 -5.3245E+02 -5.3282E+02 -5.3318E+02 -5.3354E+02 -5.3390E+02 -5.3427E+02
-5.0616E+02 -5.0679E+02 -5.0790E+02 -5.0904E+02 -5.1015E+02 -5.1114E+02 -5.1207E+02 -5.1297E+02 -5.1377E+02 -5.1443E+02 -5.1492E+02 -5.1523E+02 -5.1536E+02 -5.1529E+02 -5.1503E+02 -5.1457E+02 -5.1393E+02 -5.1313E+02 -5.1220E+02 -5.1115E+02 -5.1003E+02 -5.0885E+02 -5.0765E+02 -5.0644E+02 -5.0525E+02 -5.0410E+02 -5.0299E+02 -5.0193E+02 -5.0094E+02 -5.0000E+02 -4.9912E+02 -4.9829E+02 -4.9751E+02 -4.9678E+02 -4.9608E+02 -4.9542E+02 -4.9477E+02 -4.9416E+02 -4.9355E+02 -4.9296E+02 -4.9237E+02 -4.9179E+02 -4.9121E+02 -4.9064E+02 -4.9006E+02 -4.8948E+02 -4.8890E+02 -4.8832E+02 -4.8774E+02 -4.8716E+02 -4.8658E+02 -4.8600E+02 -4.8542E+02 -4.8485E+02 -4.8428E+02 -4.8372E+02 -4.8317E+02 -4.8263E+02 -4.8211E+02 -4.8160E+02 -4.8111E+02 -4.8064E+02 -4.8020E+02 -4.7978E+02 -4.7940E+02 -4.7905E+02 -4.7875E+02 -4.7848E+02 -4.7827E+02 -4.7811E+02 -4.7801E+02 -4.7798E+02 -4.7801E+02 -4.7813E+02 -4.7833E+02 -4.7862E+02 -4.7901E+02 -4.7951E+02 -4.8013E+02 -4.8087E+02 -4.8176E+02 -4.8279E+02 -4.8398E+02 -4.8534E+02 -4.8687E+02 -4.8857E+02 -4.9046E+02 -4.9252E+02 -4.9477E+02 -4.9718E+02 -4.9976E+02 -5.0248E+02 -5.0534E+02 -5.0832E+02 -5.1140E+02 -5.1456E+02 -5.1777E+02 -5.2102E+02 -5.2429E+02 -5.2755E+02 -5.3080E+02 -5.3401E+02 -5.3718E+02 -5.4030E+02 -5.4338E+02 -5.4640E+02 -5.4937E+02 -5.5231E+02 -5.5520E+02 -5.5807E+02 -5.6092E+02 -5.6375E+02 -5.6656E+02 -5.6935E+02 -5.7211E+02 -5.7483E+02 -5.7748E+02 -5.8004E+02 -5.8248E+02 -5.8477E+02 -5.8686E+02 -5.8872E+02 -5.9030E+02 -5.9157E+02 -5.9249E+02 -5.9304E+02 -5.9319E+02 -5.9293E+02 -5.9226E+02 -5.9118E+02 -5.8971E+02 -5.8787E+02 -5.8568E+02 -5.8319E+02 -5.8044E+02 -5.7746E+02 -5.7430E+02 -5.7102E+02 -5.6766E+02 -5.6426E+02 -5.6086E+02 -5.5751E+02 -5.5425E+02 -5.5111E+02 -5.4811E+02 -5.4530E+02 -5.4268E+02 -5.4028E+02 -5.3810E+02 -5.3617E+02 -5.3447E+02 -5.3301E+02 -5.3178E+02 -5.3077E+02 -5.2997E+02 -5.2936E+02 -5.2892E+02 -5.2864E+02 -5.2849E+02 -5.2845E+02 -5.2851E+02 -5.2864E+02 -5.2884E+02 -5.2908E+02 -5.2937E+02 -5.2967E+02 -5.3000E+02 -5.3034E+02 -5.3069E+02 -5.3104E+02 -5.3139E+02 -5.3175E+02 -5.3211E+02 -5.3246E+02 -5.3282E+02 -5.3318E+02 -5.3353E+02 -5.3389E+02 -5.3424E+02 -5.3460E+02
-5.0866E+02 -5.0928E+02 -5.1038E+02 -5.1152E+02 -5.1262E+02 -5.1362E+02 -5.1455E+02 -5.1546E+02 -5.1627E+02 -5.1694E+02 -5.1744E+02 -5.1777E+02 -5.1791E+02 -5.1786E+02 -5.1760E+02 -5.1715E+02 -5.1651E+02 -5.1571E+02 -5.1477E+02 -5.1371E+02 -5.1255E+02 -5.1134E+02 -5.1009E+02 -5.0883E+02 -5.0758E+02 -5.0636E+02 -5.0517E+02 -5.0404E+02 -5.0297E+02 -5.0196E+02 -5.0100E+02 -5.0010E+02 -4.9925E+02 -4.9846E+02 -4.9770E+02 -4.9698E+02 -4.9628E+02 -4.9562E+02 -4.9497E+02 -4.9433E+02 -4.9371E+02 -4.9309E+02 -4.9248E+02 -4.9187E+02 -4.9126E+02 -4.9064E+02 -4.9003E+02 -4.8942E+02 -4.8881E+02 -4.8820E+02 -4.8758E+02 -4.8697E+02 -4.8636E+02 -4.8576E+02 -4.8516E+02 -4.8457E+02 -4.8399E+02 -4.8342E+02 -4.8286E+02 -4.8232E+02 -4.8180E+02 -4.8130E+02 -4.8083E+02 -4.8038E+02 -4.7997E+02 -4.7959E+02 -4.7926E+02 -4.7897E+02 -4.7873E+02 -4.7855E+02 -4.7843E+02 -4.7838E+02 -4.7841E+02 -4.7851E+02 -4.7871E+02 -4.7900E+02 -4.7940E+02 -4.7991E+02 -4.8055E+02 -4.8133E+02 -4.8225E+02 -4.8332E+02 -4.8456E+02 -4.8597E+02 -4.8755E+02 -4.8932E+02 -4.9127E+02 -4.9340E+02 -4.9570E+02 -4.9818E+02 -5.0082E+02 -5.0360E+02 -5.0651E+02 -5.0954E+02 -5.1265E+02 -5.1584E+02 -5.1909E+02 -5.2235E+02 -5.2563E+02 -5.2890E+02 -5.3215E+02 -5.3536E+02 -5.3852E+02 -5.4163E+02 -5.4468E+02 -5.4768E+02 -5.5063E+02 -5.5353E+02 -5.5640E+02 -5.5923E+02 -5.6204E+02 -5.6483E+02 -5.6760E+02 -5.7035E+02 -5.7308E+02 -5.7576E+02 -5.7839E+02 -5.8093E+02 -5.8336E+02 -5.8565E+02 -5.8774E+02 -5.8962E+02 -5.9123E+02 -5.9253E+02 -5.9350E+02 -5.9411E+02 -5.9433E+02 -5.9415E+02 -5.9356E+02 -5.9257E+02 -5.9119E+02 -5.8944E+02 -5.8734E+02 -5.8494E+02 -5.8226E+02 -5.7935E+02 -5.7625E+02 -5.7302E+02 -5.6968E+02 -5.6630E+02 -5.6291E+02 -5.5956E+02 -5.5627E+02 -5.5309E+02 -5.5004E+02 -5.4716E+02 -5.4447E+02 -5.4199E+02 -5.3973E+02 -5.3769E+02 -5.3590E+02 -5.3434E+02 -5.3301E+02 -5.3191E+02 -5.3102E+02 -5.3033E+02 -5.2981E+02 -5.2945E+02 -5.2924E+02 -5.2915E+02 -5.2915E+02 -5.2925E+02 -5.2941E+02 -5.2962E+02 -5.2987E+02 -5.3016E+02 -5.3046E+02 -5.3079E+02 -5.3112E+02 -5.3146E+02 -5.3180E+02 -5.3215E+02 -5.3250E+02 -5.3284E+02 -5.3319E+02 -5.3354E+02 -5.3389E+02 -5.3423E+02 -5.3458E+02 -5.3493E+02
-5.1120E+02 -5.1181E+02 -5.1289E+02 -5.1403E+02 -5.1513E+02 -5.1613E+02 -5.1706E+02 -5.1797E+02 -5.1879E+02 -5.1946E+02 -5.1998E+02 -5.2032E+02 -5.2049E+02 -5.2045E+02 -5.2021E+02 -5.1977E+02 -5.1914E+02 -5.1834E+02 -5.1739E+02 -5.1631E+02 -5.1513E+02 -5.1389E+02 -5.1259E+02 -5.1128E+02 -5.0997E+02 -5.0868E+02 -5.0743E+02 -5.0622E+02 -5.0507E+02 -5.0398E+02 -5.0294E+02 -5.0197E+02 -5.0105E+02 -5.0019E+02 -4.9936E+02 -4.9858E+02 -4.9784E+02 -4.9712E+02 -4.9642E+02 -4.9574E+02 -4.9507E+02 -4.9442E+02 -4.9377E+02 -4.9312E+02 -4.9247E+02 -4.9183E+02 -4.9119E+02 -4.9054E+02 -4.8989E+02 -4.8925E+02 -4.8860E+02 -4.8796E+02 -4.8732E+02 -4.8668E+02 -4.8605E+02 -4.8543E+02 -4.8481E+02 -4.8421E+02 -4.8362E+02 -4.8305E+02 -4.8249E+02 -4.8196E+02 -4.8145E+02 -4.8098E+02 -4.8053E+02 -4.8013E+02 -4.7976E+02 -4.7945E+02 -4.7918E+02 -4.7898E+02 -4.7884E+02 -4.7877E+02 -4.7878E+02 -4.7887E+02 -4.7906E+02 -4.7936E+02 -4.7976E+02 -4.8029E+02 -4.8096E+02 -4.8176E+02 -4.8272E+02 -4.8384E+02 -4.8513E+02 -4.8659E+02 -4.8824E+02 -4.9007E+02 -4.9209E+02 -4.9429E+02 -4.9666E+02 -4.9920E+02 -5.0190E+02 -5.0475E+02 -5.0772E+02 -5.1079E+02 -5.1395E+02 -5.1718E+02 -5.2044E+02 -5.2374E+02 -5.2703E+02 -5.3031E+02 -5.3356E+02 -5.3676E+02 -5.3991E+02 -5.4301E+02 -5.4604E+02 -5.4902E+02 -5.5193E+02 -5.5480E+02 -5.5763E+02 -5.6043E+02 -5.6320E+02 -5.6594E+02 -5.6867E+02 -5.7138E+02 -5.7407E+02 -5.7672E+02 -5.7932E+02 -5.8184E+02 -5.8425E+02 -5.8652E+02 -5.8862E+02 -5.9051E+02 -5.9214E+02 -5.9348E+02 -5.9450E+02 -5.9516E+02 -5.9545E+02 -5.9534E+02 -5.9484E+02 -5.9393E+02 -5.9264E+02 -5.9098E+02 -5.8897E+02 -5.8665E+02 -5.8404E+02 -5.8121E+02 -5.7817E+02 -5.7499E+02 -5.7170E+02 -5.6834E+02 -5.6496E+02 -5.6161E+02 -5.5830E+02 -5.5509E+02 -5.5201E+02 -5.4907E+02 -5.4631E+02 -5.4375E+02 -5.4141E+02 -5.3928E+02 -5.3739E+02 -5.3574E+02 -5.3431E+02 -5.3312E+02 -5.3213E+02 -5.3135E+02 -5.3075E+02 -5.3032E+02 -5.3004E+02 -5.2988E+02 -5.2984E+02 -5.2988E+02 -5.3000E+02 -5.3018E+02 -5.3040E+02 -5.3066E+02 -5.3094E+02 -5.3125E+02 -5.3156E+02 -5.3189E+02 -5.3222E+02 -5.3255E+02 -5.3289E+02 -5.3323E+02 -5.3356E+02 -5.3390E+02 -5.3424E+02 -5.3458E+02 -5.3492E+02 -5.3526E+02
-5.1378E+02 -5.1437E+02 -5.1544E+02 -5.1656E+02 -5.1765E+02 -5.1866E+02 -5.1958E+02 -5.2050E+02 -5.2132E+02 -5.2201E+02 -5.2254E+02 -5.2290E+02 -5.2307E+02 -5.2305E+02 -5.2283E+02 -5.2240E+02 -5.2179E+02 -5.2099E+02 -5.2004E+02 -5.1895E+02 -5.1776E+02 -5.1648E+02 -5.1515E+02 -5.1378E+02 -5.1242E+02 -5.1106E+02 -5.0974E+02 -5.0846E+02 -5.0723E+02 -5.0606E+02 -5.0494E+02 -5.0389E+02 -5.0290E+02 -5.0196E+02 -5.0108E+02 -5.0023E+02 -4.9943E+02 -4.9865E+02 -4.9791E+02 -4.9718E+02 -4.9647E+02 -4.9577E+02 -4.9508E+02 -4.9440E+02 -4.9372E+02 -4.9304E+02 -4.9236E+02 -4.9168E+02 -4.9100E+02 -4.9032E+02 -4.8964E+02 -4.8896E+02 -4.8828E+02 -4.8761E+02 -4.8695E+02 -4.8629E+02 -4.8564E+02 -4.8500E+02 -4.8438E+02 -4.8377E+02 -4.8318E+02 -4.8261E+02 -4.8207E+02 -4.8156E+02 -4.8108E+02 -4.8064E+02 -4.8025E+02 -4.7990E+02 -4.7961E+02 -4.7938E+02 -4.7922E+02 -4.7913E+02 -4.7912E+02 -4.7921E+02 -4.7940E+02 -4.7969E+02 -4.8011E+02 -4.8065E+02 -4.8134E+02 -4.8217E+02 -4.8317E+02 -4.8433E+02 -4.8568E+02 -4.8720E+02 -4.8891E+02 -4.9081E+02 -4.9290E+02 -4.9517E+02 -4.9762E+02 -5.0024E+02 -5.0300E+02 -5.0591E+02 -5.0893E+02 -5.1206E+02 -5.1526E+02 -5.1852E+02 -5.2182E+02 -5.2513E+02 -5.2844E+02 -5.3173E+02 -5.3498E+02 -5.3818E+02 -5.4132E+02 -5.4440E+02 -5.4741E+02 -5.5036E+02 -5.5325E+02 -5.5609E+02 -5.5888E+02 -5.6164E+02 -5.6437E+02 -5.6707E+02 -5.6976E+02 -5.7243E+02 -5.7507E+02 -5.7769E+02 -5.8025E+02 -5.8274E+02 -5.8514E+02 -5.8740E+02 -5.8950E+02 -5.9139E+02 -5.9305E+02 -5.9442E+02 -5.9548E+02 -5.9620E+02 -5.9654E+02 -5.9651E+02 -5.9608E+02 -5.9526E+02 -5.9405E+02 -5.9247E+02 -5.9055E+02 -5.8831E+02 -5.8579E+02 -5.8303E+02 -5.8006E+02 -5.7693E+02 -5.7368E+02 -5.7035E+02 -5.6699E+02 -5.6364E+02 -5.6033E+02 -5.5710E+02 -5.5398E+02 -5.5099E+02 -5.4818E+02 -5.4555E+02 -5.4312E+02 -5.4092E+02 -5.3894E+02 -5.3719E+02 -5.3567E+02 -5.3437E+02 -5.3330E+02 -5.3243E+02 -5.3175E+02 -5.3124E+02 -5.3088E+02 -5.3066E+02 -5.3055E+02 -5.3055E+02 -5.3062E+02 -5.3076E+02 -5.3095E+02 -5.3118E+02 -5.3144E+02 -5.3172E+02 -5.3201E+02 -5.3232E+02 -5.3264E+02 -5.3296E+02 -5.3328E+02 -5.3361E+02 -5.3394E+02 -5.3427E+02 -5.3460E+02 -5.3493E+02 -5.3526E+02 -5.3559E+02
-5.1637E+02 -5.1696E+02 -5.1801E+02 -5.1912E+02 -5.2020E+02 -5.2120E+02 -5.2212E+02 -5.2303E+02 -5.2386E+02 -5.2455E+02 -5.2510E+02 -5.2547E+02 -5.2567E+02 -5.2567E+02 -5.2546E+02 -5.2505E+02 -5.2445E+02 -5.2366E+02 -5.2271E+02 -5.2162E+02 -5.2041E+02 -5.1910E+02 -5.1774E+02 -5.1633E+02 -5.1491E+02 -5.1349E+02 -5.1210E+02 -5.1074E+02 -5.0944E+02 -5.0819E+02 -5.0700E+02 -5.0587E+02 -5.0480E+02 -5.0379E+02 -5.0283E+02 -5.0192E+02 -5.0106E+02 -5.0023E+02 -4.9943E+02 -4.9865E+02 -4.9790E+02 -4.9715E+02 -4.9642E+02 -4.9570E+02 -4.9498E+02 -4.9426E+02 -4.9354E+02 -4.9283E+02 -4.9211E+02 -4.9140E+02 -4.9068E+02 -4.8997E+02 -4.8926E+02 -4.8855E+02 -4.8785E+02 -4.8715E+02 -4.8647E+02 -4.8579E+02 -4.8513E+02 -4.8449E+02 -4.8386E+02 -4.8326E+02 -4.8268E+02 -4.8213E+02 -4.8162E+02 -4.8115E+02 -4.8072E+02 -4.8034E+02 -4.8002E+02 -4.7976E+02 -4.7958E+02 -4.7947E+02 -4.7944E+02 -4.7952E+02 -4.7970E+02 -4.7999E+02 -4.8042E+02 -4.8098E+02 -4.8169E+02 -4.8255E+02 -4.8359E+02 -4.8480E+02 -4.8620E+02 -4.8779E+02 -4.8957E+02 -4.9154E+02 -4.9370E+02 -4.9605E+02 -4.9857E+02 -5.0125E+02 -5.0409E+02 -5.0705E+02 -5.1014E+02 -5.1331E+02 -5.1656E+02 -5.1986E+02 -5.2318E+02 -5.2652E+02 -5.2984E+02 -5.3313E+02 -5.3638E+02 -5.3958E+02 -5.4271E+02 -5.4578E+02 -5.4877E+02 -5.5170E+02 -5.5456E+02 -5.5737E+02 -5.6012E+02 -5.6284E+02 -5.6553E+02 -5.6820E+02 -5.7084E+02 -5.7347E+02 -5.7607E+02 -5.7865E+02 -5.8118E+02 -5.8365E+02 -5.8602E+02 -5.8827E+02 -5.9037E+02 -5.9227E+02 -5.9394E+02 -5.9534E+02 -5.9644E+02 -5.9720E+02 -5.9761E+02 -5.9764E+02 -5.9729E+02 -5.9655E+02 -5.9542E+02 -5.9393E+02 -5.9209E+02 -5.8993E+02 -5.8749E+02 -5.8479E+02 -5.8189E+02 -5.7882E+02 -5.7561E+02 -5.7232E+02 -5.6899E+02 -5.6565E+02 -5.6234E+02 -5.5909E+02 -5.5594E+02 -5.5292E+02 -5.5005E+02 -5.4736E+02 -5.4486E+02 -5.4257E+02 -5.4051E+02 -5.3867E+02 -5.3706E+02 -5.3567E+02 -5.3450E+02 -5.3354E+02 -5.3278E+02 -5.3219E+02 -5.3176E+02 -5.3147E+02 -5.3130E+02 -5.3124E+02 -5.3126E+02 -5.3136E+02 -5.3151E+02 -5.3171E+02 -5.3194E+02 -5.3220E+02 -5.3247E+02 -5.3276E+02 -5.3306E+02 -5.3337E+02 -5.3368E+02 -5.3400E+02 -5.3432E+02 -5.3463E+02 -5.3495E+02 -5.3527E+02 -5.3559E+02 -5.3592E+02
-5.1899E+02 -5.1956E+02 -5.2059E+02 -5.2168E+02 -5.2275E+02 -5.2374E+02 -5.2466E+02 -5.2557E+02 -5.2640E+02 -5.2710E+02 -5.2765E+02 -5.2804E+02 -5.2825E+02 -5.2827E+02 -5.2809E+02 -5.2770E+02 -5.2711E+02 -5.2634E+02 -5.2539E+02 -5.2430E+02 -5.2308E+02 -5.2175E+02 -5.2036E+02 -5.1891E+02 -5.1744E+02 -5.1596E+02 -5.1450E+02 -5.1308E+02 -5.1170E+02 -5.1037E+02 -5.0910E+02 -5.0789E+02 -5.0675E+02 -5.0566E+02 -5.0464E+02 -5.0366E+02 -5.0273E+02 -5.0184E+02 -5.0099E+02 -5.0016E+02 -4.9935E+02 -4.9856E+02 -4.9779E+02 -4.9702E+02 -4.9626E+02 -4.9551E+02 -4.9475E+02 -4.9400E+02 -4.9324E+02 -4.9249E+02 -4.9174E+02 -4.9099E+02 -4.9024E+02 -4.8949E+02 -4.8875E+02 -4.8802E+02 -4.8730E+02 -4.8658E+02 -4.8589E+02 -4.8520E+02 -4.8454E+02 -4.8390E+02 -4.8328E+02 -4.8270E+02 -4.8215E+02 -4.8164E+02 -4.8117E+02 -4.8076E+02 -4.8041E+02 -4.8012E+02 -4.7991E+02 -4.7978E+02 -4.7974E+02 -4.7980E+02 -4.7997E+02 -4.8027E+02 -4.8070E+02 -4.8127E+02 -4.8201E+02 -4.8290E+02 -4.8398E+02 -4.8524E+02 -4.8669E+02 -4.8834E+02 -4.9019E+02 -4.9223E+02 -4.9446E+02 -4.9688E+02 -4.9948E+02 -5.0223E+02 -5.0513E+02 -5.0816E+02 -5.1130E+02 -5.1453E+02 -5.1781E+02 -5.2115E+02 -5.2450E+02 -5.2785E+02 -5.3119E+02 -5.3449E+02 -5.3774E+02 -5.4093E+02 -5.4406E+02 -5.4711E+02 -5.5009E+02 -5.5299E+02 -5.5583E+02 -5.5861E+02 -5.6134E+02 -5.6402E+02 -5.6667E+02 -5.6930E+02 -5.7191E+02 -5.7450E+02 -5.7707E+02 -5.7961E+02 -5.8211E+02 -5.8455E+02 -5.8690E+02 -5.8914E+02 -5.9123E+02 -5.9314E+02 -5.9482E+02 -5.9625E+02 -5.9738E+02 -5.9819E+02 -5.9866E+02 -5.9875E+02 -5.9846E+02 -5.9779E+02 -5.9675E+02 -5.9533E+02 -5.9358E+02 -5.9150E+02 -5.8913E+02 -5.8650E+02 -5.8366E+02 -5.8065E+02 -5.7749E+02 -5.7424E+02 -5.7094E+02 -5.6761E+02 -5.6430E+02 -5.6105E+02 -5.5788E+02 -5.5482E+02 -5.5191E+02 -5.4916E+02 -5.4660E+02 -5.4424E+02 -5.4210E+02 -5.4017E+02 -5.3847E+02 -5.3700E+02 -5.3574E+02 -5.3469E+02 -5.3384E+02 -5.3316E+02 -5.3266E+02 -5.3230E+02 -5.3207E+02 -5.3195E+02 -5.3192E+02 -5.3197E+02 -5.3209E+02 -5.3225E+02 -5.3245E+02 -5.3269E+02 -5.3294E+02 -5.3321E+02 -5.3350E+02 -5.3379E+02 -5.3409E+02 -5.3439E+02 -5.3469E+02 -5.3500E+02 -5.3531E+02 -5.3562E+02 -5.3593E+02 -5.3625E+02
-5.2162E+02 -5.2218E+02 -5.2319E+02 -5.2426E+02 -5.2531E+02 -5.2630E+02 -5.2720E+02 -5.2810E+02 -5.2893E+02 -5.2963E+02 -5.3019E+02 -5.3059E+02 -5.3082E+02 -5.3086E+02 -5.3070E+02 -5.3033E+02 -5.2976E+02 -5.2900E+02 -5.2807E+02 -5.2697E+02 -5.2575E+02 -5.2441E+02 -5.2299E+02 -5.2150E+02 -5.1999E+02 -5.1846E+02 -5.1694E+02 -5.1545E+02 -5.1400E+02 -5.1259E+02 -5.1125E+02 -5.0996E+02 -5.0874E+02 -5.0758E+02 -5.0648E+02 -5.0543E+02 -5.0444E+02 -5.0349E+02 -5.0258E+02 -5.0170E+02 -5.0084E+02 -5.0000E+02 -4.9918E+02 -4.9837E+02 -4.9757E+02 -4.9677E+02 -4.9597E+02 -4.9518E+02 -4.9439E+02 -4.9360E+02 -4.9280E+02 -4.9201E+02 -4.9123E+02 -4.9044E+02 -4.8966E+02 -4.8889E+02 -4.8813E+02 -4.8737E+02 -4.8664E+02 -4.8591E+02 -4.8521E+02 -4.8452E+02 -4.8387E+02 -4.8325E+02 -4.8266E+02 -4.8211E+02 -4.8161E+02 -4.8116E+02 -4.8077E+02 -4.8046E+02 -4.8021E+02 -4.8006E+02 -4.8000E+02 -4.8005E+02 -4.8021E+02 -4.8051E+02 -4.8094E+02 -4.8153E+02 -4.8229E+02 -4.8322E+02 -4.8433E+02 -4.8564E+02 -4.8715E+02 -4.8886E+02 -4.9077E+02 -4.9288E+02 -4.9518E+02 -4.9767E+02 -5.0034E+02 -5.0316E+02 -5.0613E+02 -5.0921E+02 -5.1240E+02 -5.1568E+02 -5.1900E+02 -5.2237E+02 -5.2575E+02 -5.2912E+02 -5.3247E+02 -5.3577E+02 -5.3903E+02 -5.4222E+02 -5.4533E+02 -5.4837E+02 -5.5133E+02 -5.5422E+02 -5.5704E+02 -5.5980E+02 -5.6250E+02 -5.6516E+02 -5.6778E+02 -5.7037E+02 -5.7295E+02 -5.7551E+02 -5.7804E+02 -5.8055E+02 -5.8302E+02 -5.8544E+02 -5.8778E+02 -5.9000E+02 -5.9209E+02 -5.9400E+02 -5.9570E+02 -5.9715E+02 -5.9832E+02 -5.9917E+02 -5.9968E+02 -5.9983E+02 -5.9961E+02 -5.9901E+02 -5.9803E+02 -5.9670E+02 -5.9501E+02 -5.9301E+02 -5.9071E+02 -5.8815E+02 -5.8537E+02 -5.8241E+02 -5.7931E+02 -5.7610E+02 -5.7282E+02 -5.6951E+02 -5.6621E+02 -5.6296E+02 -5.5977E+02 -5.5669E+02 -5.5375E+02 -5.5095E+02 -5.4833E+02 -5.4591E+02 -5.4369E+02 -5.4168E+02 -5.3990E+02 -5.3834E+02 -5.3699E+02 -5.3585E+02 -5.3492E+02 -5.3416E+02 -5.3358E+02 -5.3315E+02 -5.3286E+02 -5.3268E+02 -5.3260E+02 -5.3260E+02 -5.3268E+02 -5.3280E+02 -5.3298E+02 -5.3318E+02 -5.3341E+02 -5.3366E+02 -5.3393E+02 -5.3420E+02 -5.3449E+02 -5.3478E+02 -5.3507E+02 -5.3537E+02 -5.3567E+02 -5.3597E+02 -5.3627E+02 -5.3658E+02
-5.2426E+02 -5.2481E+02 -5.2579E+02 -5.2685E+02 -5.2788E+02 -5.2885E+02 -5.2974E+02 -5.3063E+02 -5.3145E+02 -5.3216E+02 -5.3272E+02 -5.3313E+02 -5.3337E+02 -5.3343E+02 -5.3328E+02 -5.3294E+02 -5.3239E+02 -5.3165E+02 -5.3072E+02 -5.2964E+02 -5.2841E+02 -5.2706E+02 -5.2562E+02 -5.2411E+02 -5.2256E+02 -5.2098E+02 -5.1941E+02 -5.1785E+02 -5.1633E+02 -5.1485E+02 -5.1343E+02 -5.1207E+02 -5.1077E+02 -5.0954E+02 -5.0836E+02 -5.0725E+02 -5.0619E+02 -5.0518E+02 -5.0420E+02 -5.0327E+02 -5.0236E+02 -5.0147E+02 -5.0060E+02 -4.9974E+02 -4.9890E+02 -4.9805E+02 -4.9722E+02 -4.9638E+02 -4.9555E+02 -4.9471E+02 -4.9388E+02 -4.9305E+02 -4.9222E+02 -4.9140E+02 -4.9058E+02 -4.8976E+02 -4.8896E+02 -4.8816E+02 -4.8738E+02 -4.8661E+02 -4.8587E+02 -4.8514E+02 -4.8445E+02 -4.8378E+02 -4.8315E+02 -4.8256E+02 -4.8202E+02 -4.8154E+02 -4.8112E+02 -4.8076E+02 -4.8049E+02 -4.8031E+02 -4.8023E+02 -4.8026E+02 -4.8042E+02 -4.8071E+02 -4.8115E+02 -4.8176E+02 -4.8253E+02 -4.8349E+02 -4.8464E+02 -4.8600E+02 -4.8756E+02 -4.8932E+02 -4.9130E+02 -4.9347E+02 -4.9584E+02 -4.9840E+02 -5.0113E+02 -5.0402E+02 -5.0705E+02 -5.1019E+02 -5.1343E+02 -5.1674E+02 -5.2010E+02 -5.2350E+02 -5.2690E+02 -5.3029E+02 -5.3365E+02 -5.3696E+02 -5.4021E+02 -5.4340E+02 -5.4651E+02 -5.4955E+02 -5.5250E+02 -5.5537E+02 -5.5818E+02 -5.6092E+02 -5.6360E+02 -5.6624E+02 -5.6884E+02 -5.7141E+02 -5.7396E+02 -5.7649E+02 -5.7900E+02 -5.8148E+02 -5.8393E+02 -5.8633E+02 -5.8865E+02 -5.9087E+02 -5.9295E+02 -5.9487E+02 -5.9658E+02 -5.9805E+02 -5.9924E+02 -6.0013E+02 -6.0069E+02 -6.0089E+02 -6.0073E+02 -6.0019E+02 -5.9928E+02 -5.9801E+02 -5.9639E+02 -5.9446E+02 -5.9223E+02 -5.8973E+02 -5.8701E+02 -5.8411E+02 -5.8105E+02 -5.7788E+02 -5.7463E+02 -5.7135E+02 -5.6806E+02 -5.6481E+02 -5.6161E+02 -5.5851E+02 -5.5553E+02 -5.5270E+02 -5.5003E+02 -5.4755E+02 -5.4526E+02 -5.4318E+02 -5.4132E+02 -5.3967E+02 -5.3824E+02 -5.3703E+02 -5.3601E+02 -5.3517E+02 -5.3452E+02 -5.3402E+02 -5.3366E+02 -5.3342E+02 -5.3329E+02 -5.3324E+02 -5.3327E+02 -5.3336E+02 -5.3350E+02 -5.3368E+02 -5.3389E+02 -5.3412E+02 -5.3437E+02 -5.3462E+02 -5.3489E+02 -5.3517E+02 -5.3545E+02 -5.3574E+02 -5.3602E+02 -5.3631E+02 -5.3661E+02 -5.3691E+02
-5.2691E+02 -5.2745E+02 -5.2841E+02 -5.2943E+02 -5.3044E+02 -5.3140E+02 -5.3227E+02 -5.3315E+02 -5.3396E+02 -5.3466E+02 -5.3523E+02 -5.3564E+02 -5.3589E+02 -5.3596E+02 -5.3584E+02 -5.3551E+02 -5.3498E+02 -5.3426E+02 -5.3335E+02 -5.3228E+02 -5.3105E+02 -5.2970E+02 -5.2825E+02 -5.2671E+02 -5.2513E+02 -5.2351E+02 -5.2188E+02 -5.2027E+02 -5.1869E+02 -5.1714E+02 -5.1565E+02 -5.1421E+02 -5.1284E+02 -5.1153E+02 -5.1029E+02 -5.0910E+02 -5.0798E+02 -5.0690E+02 -5.0586E+02 -5.0487E+02 -5.0390E+02 -5.0296E+02 -5.0204E+02 -5.0114E+02 -5.0024E+02 -4.9936E+02 -4.9847E+02 -4.9760E+02 -4.9672E+02 -4.9584E+02 -4.9497E+02 -4.9409E+02 -4.9322E+02 -4.9235E+02 -4.9149E+02 -4.9063E+02 -4.8978E+02 -4.8895E+02 -4.8812E+02 -4.8731E+02 -4.8652E+02 -4.8575E+02 -4.8501E+02 -4.8430E+02 -4.8362E+02 -4.8299E+02 -4.8241E+02 -4.8189E+02 -4.8143E+02 -4.8104E+02 -4.8074E+02 -4.8053E+02 -4.8043E+02 -4.8045E+02 -4.8059E+02 -4.8088E+02 -4.8133E+02 -4.8194E+02 -4.8274E+02 -4.8372E+02 -4.8491E+02 -4.8631E+02 -4.8791E+02 -4.8973E+02 -4.9177E+02 -4.9401E+02 -4.9644E+02 -4.9906E+02 -5.0185E+02 -5.0480E+02 -5.0788E+02 -5.1107E+02 -5.1435E+02 -5.1770E+02 -5.2110E+02 -5.2452E+02 -5.2794E+02 -5.3134E+02 -5.3471E+02 -5.3803E+02 -5.4129E+02 -5.4447E+02 -5.4758E+02 -5.5061E+02 -5.5356E+02 -5.5643E+02 -5.5923E+02 -5.6196E+02 -5.6463E+02 -5.6725E+02 -5.6984E+02 -5.7239E+02 -5.7493E+02 -5.7744E+02 -5.7993E+02 -5.8240E+02 -5.8483E+02 -5.8721E+02 -5.8952E+02 -5.9173E+02 -5.9381E+02 -5.9574E+02 -5.9746E+02 -5.9895E+02 -6.0017E+02 -6.0109E+02 -6.0169E+02 -6.0193E+02 -6.0182E+02 -6.0134E+02 -6.0049E+02 -5.9928E+02 -5.9772E+02 -5.9585E+02 -5.9368E+02 -5.9124E+02 -5.8858E+02 -5.8572E+02 -5.8271E+02 -5.7958E+02 -5.7636E+02 -5.7310E+02 -5.6983E+02 -5.6658E+02 -5.6338E+02 -5.6027E+02 -5.5727E+02 -5.5440E+02 -5.5168E+02 -5.4915E+02 -5.4680E+02 -5.4465E+02 -5.4272E+02 -5.4100E+02 -5.3949E+02 -5.3819E+02 -5.3709E+02 -5.3619E+02 -5.3546E+02 -5.3489E+02 -5.3446E+02 -5.3417E+02 -5.3398E+02 -5.3389E+02 -5.3388E+02 -5.3393E+02 -5.3404E+02 -5.3418E+02 -5.3437E+02 -5.3458E+02 -5.3480E+02 -5.3505E+02 -5.3530E+02 -5.3556E+02 -5.3583E+02 -5.3610E+02 -5.3638E+02 -5.3666E+02 -5.3695E+02 -5.3724E+02
-5.2956E+02 -5.3010E+02 -5.3103E+02 -5.3203E+02 -5.3301E+02 -5.3394E+02 -5.3480E+02 -5.3566E+02 -5.3645E+02 -5.3714E+02 -5.3771E+02 -5.3812E+02 -5.3838E+02 -5.3847E+02 -5.3836E+02 -5.3805E+02 -5.3754E+02 -5.3683E+02 -5.3595E+02 -5.3488E+02 -5.3367E+02 -5.3231E+02 -5.3085E+02 -5.2930E+02 -5.2769E+02 -5.2604E+02 -5.2437E+02 -5.2271E+02 -5.2107E+02 -5.1946E+02 -5.1790E+02 -5.1639E+02 -5.1495E+02 -5.1357E+02 -5.1225E+02 -5.1100E+02 -5.0980E+02 -5.0866E+02 -5.0756E+02 -5.0650E+02 -5.0548E+02 -5.0449E+02 -5.0351E+02 -5.0256E+02 -5.0161E+02 -5.0068E+02 -4.9975E+02 -4.9882E+02 -4.9790E+02 -4.9698E+02 -4.9606E+02 -4.9514E+02 -4.9423E+02 -4.9331E+02 -4.9241E+02 -4.9150E+02 -4.9061E+02 -4.8972E+02 -4.8885E+02 -4.8800E+02 -4.8716E+02 -4.8634E+02 -4.8555E+02 -4.8480E+02 -4.8408E+02 -4.8341E+02 -4.8278E+02 -4.8222E+02 -4.8172E+02 -4.8130E+02 -4.8096E+02 -4.8072E+02 -4.8060E+02 -4.8060E+02 -4.8073E+02 -4.8101E+02 -4.8146E+02 -4.8209E+02 -4.8290E+02 -4.8391E+02 -4.8513E+02 -4.8657E+02 -4.8822E+02 -4.9009E+02 -4.9218E+02 -4.9448E+02 -4.9697E+02 -4.9965E+02 -5.0249E+02 -5.0549E+02 -5.0862E+02 -5.1185E+02 -5.1518E+02 -5.1856E+02 -5.2198E+02 -5.2542E+02 -5.2886E+02 -5.3227E+02 -5.3565E+02 -5.3898E+02 -5.4224E+02 -5.4543E+02 -5.4854E+02 -5.5157E+02 -5.5452E+02 -5.5739E+02 -5.6018E+02 -5.6291E+02 -5.6558E+02 -5.6820E+02 -5.7078E+02 -5.7333E+02 -5.7585E+02 -5.7836E+02 -5.8084E+02 -5.8329E+02 -5.8572E+02 -5.8809E+02 -5.9039E+02 -5.9260E+02 -5.9469E+02 -5.9661E+02 -5.9834E+02 -5.9985E+02 -6.0109E+02 -6.0204E+02 -6.0267E+02 -6.0296E+02 -6.0289E+02 -6.0246E+02 -6.0166E+02 -6.0050E+02 -5.9900E+02 -5.9718E+02 -5.9507E+02 -5.9269E+02 -5.9007E+02 -5.8726E+02 -5.8429E+02 -5.8119E+02 -5.7801E+02 -5.7477E+02 -5.7152E+02 -5.6827E+02 -5.6508E+02 -5.6195E+02 -5.5893E+02 -5.5603E+02 -5.5328E+02 -5.5069E+02 -5.4829E+02 -5.4609E+02 -5.4409E+02 -5.4230E+02 -5.4072E+02 -5.3934E+02 -5.3817E+02 -5.3719E+02 -5.3639E+02 -5.3576E+02 -5.3527E+02 -5.3491E+02 -5.3467E+02 -5.3454E+02 -5.3448E+02 -5.3450E+02 -5.3457E+02 -5.3469E+02 -5.3485E+02 -5.3503E+02 -5.3524E+02 -5.3547E+02 -5.3571E+02 -5.3596E+02 -5.3621E+02 -5.3647E+02 -5.3674E+02 -5.3701E+02 -5.3728E+02 -5.3757E+02
-5.3222E+02 -5.3275E+02 -5.3365E+02 -5.3462E+02 -5.3557E+02 -5.3648E+02 -5.3732E+02 -5.3815E+02 -5.3893E+02 -5.3960E+02 -5.4016E+02 -5.4057E+02 -5.4084E+02 -5.4093E+02 -5.4083E+02 -5.4054E+02 -5.4005E+02 -5.3937E+02 -5.3850E+02 -5.3745E+02 -5.3624E+02 -5.3490E+02 -5.3344E+02 -5.3188E+02 -5.3025E+02 -5.2857E+02 -5.2687E+02 -5.2516E+02 -5.2346E+02 -5.2180E+02 -5.2017E+02 -5.1860E+02 -5.1709E+02 -5.1564E+02 -5.1425E+02 -5.1293E+02 -5.1166E+02 -5.1045E+02 -5.0929E+02 -5.0817E+02 -5.0709E+02 -5.0604E+02 -5.0501E+02 -5.0400E+02 -5.0300E+02 -5.0202E+02 -5.0104E+02 -5.0007E+02 -4.9910E+02 -4.9813E+02 -4.9716E+02 -4.9620E+02 -4.9524E+02 -4.9428E+02 -4.9332E+02 -4.9237E+02 -4.9143E+02 -4.9050E+02 -4.8958E+02 -4.8867E+02 -4.8778E+02 -4.8692E+02 -4.8608E+02 -4.8528E+02 -4.8451E+02 -4.8379E+02 -4.8312E+02 -4.8252E+02 -4.8198E+02 -4.8152E+02 -4.8115E+02 -4.8089E+02 -4.8074E+02 -4.8071E+02 -4.8084E+02 -4.8112E+02 -4.8156E+02 -4.8220E+02 -4.8303E+02 -4.8407E+02 -4.8532E+02 -4.8679E+02 -4.8848E+02 -4.9040E+02 -4.9254E+02 -4.9488E+02 -4.9743E+02 -5.0016E+02 -5.0305E+02 -5.0610E+02 -5.0927E+02 -5.1254E+02 -5.1589E+02 -5.1930E+02 -5.2275E+02 -5.2620E+02 -5.2965E+02 -5.3308E+02 -5.3647E+02 -5.3980E+02 -5.4307E+02 -5.4626E+02 -5.4938E+02 -5.5241E+02 -5.5536E+02 -5.5824E+02 -5.6104E+02 -5.6377E+02 -5.6645E+02 -5.6907E+02 -5.7166E+02 -5.7421E+02 -5.7674E+02 -5.7924E+02 -5.8172E+02 -5.8418E+02 -5.8660E+02 -5.8897E+02 -5.9127E+02 -5.9348E+02 -5.9556E+02 -5.9750E+02 -5.9924E+02 -6.0076E+02 -6.0202E+02 -6.0300E+02 -6.0366E+02 -6.0398E+02 -6.0394E+02 -6.0355E+02 -6.0280E+02 -6.0169E+02 -6.0023E+02 -5.9846E+02 -5.9639E+02 -5.9406E+02 -5.9149E+02 -5.8872E+02 -5.8578E+02 -5.8272E+02 -5.7956E+02 -5.7635E+02 -5.7311E+02 -5.6987E+02 -5.6668E+02 -5.6354E+02 -5.6050E+02 -5.5758E+02 -5.5480E+02 -5.5218E+02 -5.4973E+02 -5.4747E+02 -5.4541E+02 -5.4356E+02 -5.4191E+02 -5.4047E+02 -5.3923E+02 -5.3818E+02 -5.3731E+02 -5.3661E+02 -5.3607E+02 -5.3566E+02 -5.3537E+02 -5.3518E+02 -5.3509E+02 -5.3506E+02 -5.3510E+02 -5.3520E+02 -5.3533E+02 -5.3549E+02 -5.3568E+02 -5.3589E+02 -5.3611E+02 -5.3635E+02 -5.3659E+02 -5.3684E+02 -5.3709E+02 -5.3735E+02 -5.3762E+02 -5.3790E+02
-5.3488E+02 -5.3541E+02 -5.3628E+02 -5.3721E+02 -5.3813E+02 -5.3901E+02 -5.3982E+02 -5.4063E+02 -5.4138E+02 -5.4204E+02 -5.4259E+02 -5.4299E+02 -5.4326E+02 -5.4335E+02 -5.4326E+02 -5.4299E+02 -5.4252E+02 -5.4185E+02 -5.4100E+02 -5.3997E+02 -5.3878E+02 -5.3745E+02 -5.3599E+02 -5.3443E+02 -5.3279E+02 -5.3109E+02 -5.2936E+02 -5.2761E+02 -5.2587E+02 -5.2416E+02 -5.2247E+02 -5.2084E+02 -5.1926E+02 -5.1774E+02 -5.1629E+02 -5.1489E+02 -5.1356E+02 -5.1228E+02 -5.1105E+02 -5.0987E+02 -5.0873E+02 -5.0761E+02 -5.0653E+02 -5.0546E+02 -5.0441E+02 -5.0338E+02 -5.0235E+02 -5.0132E+02 -5.0030E+02 -4.9929E+02 -4.9827E+02 -4.9726E+02 -4.9625E+02 -4.9524E+02 -4.9423E+02 -4.9323E+02 -4.9224E+02 -4.9126E+02 -4.9029E+02 -4.8933E+02 -4.8840E+02 -4.8748E+02 -4.8659E+02 -4.8574E+02 -4.8492E+02 -4.8416E+02 -4.8344E+02 -4.8279E+02 -4.8221E+02 -4.8171E+02 -4.8131E+02 -4.8102E+02 -4.8084E+02 -4.8080E+02 -4.8091E+02 -4.8119E+02 -4.8164E+02 -4.8228E+02 -4.8313E+02 -4.8418E+02 -4.8546E+02 -4.8697E+02 -4.8870E+02 -4.9066E+02 -4.9284E+02 -4.9524E+02 -4.9783E+02 -5.0060E+02 -5.0354E+02 -5.0662E+02 -5.0982E+02 -5.1313E+02 -5.1651E+02 -5.1994E+02 -5.2340E+02 -5.2687E+02 -5.3033E+02 -5.3377E+02 -5.3716E+02 -5.4050E+02 -5.4377E+02 -5.4697E+02 -5.5010E+02 -5.5314E+02 -5.5611E+02 -5.5899E+02 -5.6181E+02 -5.6456E+02 -5.6724E+02 -5.6988E+02 -5.7248E+02 -5.7505E+02 -5.7758E+02 -5.8010E+02 -5.8259E+02 -5.8505E+02 -5.8747E+02 -5.8985E+02 -5.9215E+02 -5.9436E+02 -5.9646E+02 -5.9839E+02 -6.0015E+02 -6.0168E+02 -6.0296E+02 -6.0395E+02 -6.0463E+02 -6.0498E+02 -6.0498E+02 -6.0462E+02 -6.0390E+02 -6.0283E+02 -6.0141E+02 -5.9968E+02 -5.9765E+02 -5.9536E+02 -5.9283E+02 -5.9009E+02 -5.8719E+02 -5.8416E+02 -5.8102E+02 -5.7783E+02 -5.7460E+02 -5.7138E+02 -5.6818E+02 -5.6504E+02 -5.6199E+02 -5.5905E+02 -5.5624E+02 -5.5358E+02 -5.5109E+02 -5.4879E+02 -5.4668E+02 -5.4477E+02 -5.4306E+02 -5.4156E+02 -5.4025E+02 -5.3914E+02 -5.3822E+02 -5.3746E+02 -5.3685E+02 -5.3639E+02 -5.3605E+02 -5.3582E+02 -5.3569E+02 -5.3563E+02 -5.3564E+02 -5.3570E+02 -5.3581E+02 -5.3595E+02 -5.3612E+02 -5.3631E+02 -5.3652E+02 -5.3674E+02 -5.3697E+02 -5.3721E+02 -5.3745E+02 -5.3770E+02 -5.3796E+02 -5.3823E+02
-5.3754E+02 -5.3807E+02 -5.3891E+02 -5.3981E+02 -5.4069E+02 -5.4154E+02 -5.4232E+02 -5.4310E+02 -5.4383E+02 -5.4446E+02 -5.4499E+02 -5.4538E+02 -5.4564E+02 -5.4574E+02 -5.4566E+02 -5.4539E+02 -5.4493E+02 -5.4429E+02 -5.4346E+02 -5.4245E+02 -5.4128E+02 -5.3996E+02 -5.3851E+02 -5.3695E+02 -5.3531E+02 -5.3360E+02 -5.3184E+02 -5.3007E+02 -5.2829E+02 -5.2653E+02 -5.2480E+02 -5.2311E+02 -5.2147E+02 -5.1988E+02 -5.1836E+02 -5.1690E+02 -5.1549E+02 -5.1415E+02 -5.1285E+02 -5.1160E+02 -5.1040E+02 -5.0922E+02 -5.0808E+02 -5.0695E+02 -5.0585E+02 -5.0475E+02 -5.0367E+02 -5.0259E+02 -5.0152E+02 -5.0045E+02 -4.9939E+02 -4.9832E+02 -4.9726E+02 -4.9620E+02 -4.9514E+02 -4.9409E+02 -4.9305E+02 -4.9201E+02 -4.9099E+02 -4.8998E+02 -4.8899E+02 -4.8802E+02 -4.8708E+02 -4.8618E+02 -4.8531E+02 -4.8449E+02 -4.8373E+02 -4.8303E+02 -4.8241E+02 -4.8188E+02 -4.8144E+02 -4.8112E+02 -4.8092E+02 -4.8086E+02 -4.8096E+02 -4.8123E+02 -4.8168E+02 -4.8233E+02 -4.8320E+02 -4.8428E+02 -4.8558E+02 -4.8712E+02 -4.8889E+02 -4.9089E+02 -4.9311E+02 -4.9554E+02 -4.9817E+02 -5.0098E+02 -5.0396E+02 -5.0707E+02 -5.1030E+02 -5.1363E+02 -5.1703E+02 -5.2048E+02 -5.2396E+02 -5.2744E+02 -5.3091E+02 -5.3435E+02 -5.3775E+02 -5.4110E+02 -5.4438E+02 -5.4759E+02 -5.5072E+02 -5.5378E+02 -5.5676E+02 -5.5966E+02 -5.6250E+02 -5.6526E+02 -5.6798E+02 -5.7064E+02 -5.7326E+02 -5.7584E+02 -5.7840E+02 -5.8093E+02 -5.8343E+02 -5.8591E+02 -5.8834E+02 -5.9073E+02 -5.9304E+02 -5.9526E+02 -5.9736E+02 -5.9930E+02 -6.0106E+02 -6.0261E+02 -6.0390E+02 -6.0490E+02 -6.0560E+02 -6.0597E+02 -6.0599E+02 -6.0566E+02 -6.0497E+02 -6.0393E+02 -6.0254E+02 -6.0084E+02 -5.9885E+02 -5.9659E+02 -5.9408E+02 -5.9138E+02 -5.8851E+02 -5.8550E+02 -5.8239E+02 -5.7921E+02 -5.7600E+02 -5.7278E+02 -5.6958E+02 -5.6644E+02 -5.6338E+02 -5.6042E+02 -5.5759E+02 -5.5490E+02 -5.5238E+02 -5.5003E+02 -5.4788E+02 -5.4592E+02 -5.4416E+02 -5.4260E+02 -5.4124E+02 -5.4007E+02 -5.3909E+02 -5.3828E+02 -5.3762E+02 -5.3711E+02 -5.3672E+02 -5.3645E+02 -5.3628E+02 -5.3619E+02 -5.3616E+02 -5.3620E+02 -5.3628E+02 -5.3640E+02 -5.3655E+02 -5.3673E+02 -5.3692E+02 -5.3713E+02 -5.3735E+02 -5.3757E+02 -5.3780E+02 -5.3804E+02 -5.3830E+02 -5.3856E+02
-5.4020E+02 -5.4073E+02 -5.4154E+02 -5.4240E+02 -5.4325E+02 -5.4406E+02 -5.4481E+02 -5.4556E+02 -5.4625E+02 -5.4686E+02 -5.4737E+02 -5.4775E+02 -5.4799E+02 -5.4809E+02 -5.4801E+02 -5.4775E+02 -5.4731E+02 -5.4668E+02 -5.4587E+02 -5.4489E+02 -5.4374E+02 -5.4244E+02 -5.4100E+02 -5.3945E+02 -5.3781E+02 -5.3609E+02 -5.3432E+02 -5.3253E+02 -5.3072E+02 -5.2892E+02 -5.2714E+02 -5.2540E+02 -5.2370E+02 -5.2205E+02 -5.2046E+02 -5.1893E+02 -5.1746E+02 -5.1605E+02 -5.1469E+02 -5.1337E+02 -5.1210E+02 -5.1086E+02 -5.0965E+02 -5.0847E+02 -5.0730E+02 -5.0615E+02 -5.0501E+02 -5.0388E+02 -5.0275E+02 -5.0163E+02 -5.0051E+02 -4.9939E+02 -4.9827E+02 -4.9716E+02 -4.9605E+02 -4.9495E+02 -4.9385E+02 -4.9276E+02 -4.9168E+02 -4.9062E+02 -4.8957E+02 -4.8855E+02 -4.8755E+02 -4.8659E+02 -4.8568E+02 -4.8481E+02 -4.8400E+02 -4.8325E+02 -4.8259E+02 -4.8201E+02 -4.8154E+02 -4.8119E+02 -4.8097E+02 -4.8090E+02 -4.8099E+02 -4.8125E+02 -4.8171E+02 -4.8237E+02 -4.8325E+02 -4.8435E+02 -4.8569E+02 -4.8725E+02 -4.8906E+02 -4.9109E+02 -4.9335E+02 -4.9581E+02 -4.9848E+02 -5.0132E+02 -5.0433E+02 -5.0747E+02 -5.1073E+02 -5.1407E+02 -5.1749E+02 -5.2095E+02 -5.2444E+02 -5.2793E+02 -5.3140E+02 -5.3485E+02 -5.3825E+02 -5.4161E+02 -5.4489E+02 -5.4811E+02 -5.5126E+02 -5.5433E+02 -5.5733E+02 -5.6026E+02 -5.6312E+02 -5.6591E+02 -5.6865E+02 -5.7134E+02 -5.7399E+02 -5.7660E+02 -5.7919E+02 -5.8174E+02 -5.8427E+02 -5.8676E+02 -5.8921E+02 -5.9161E+02 -5.9394E+02 -5.9617E+02 -5.9827E+02 -6.0022E+02 -6.0199E+02 -6.0354E+02 -6.0484E+02 -6.0586E+02 -6.0657E+02 -6.0695E+02 -6.0699E+02 -6.0667E+02 -6.0600E+02 -6.0498E+02 -6.0362E+02 -6.0195E+02 -5.9998E+02 -5.9774E+02 -5.9526E+02 -5.9258E+02 -5.8973E+02 -5.8674E+02 -5.8365E+02 -5.8049E+02 -5.7729E+02 -5.7407E+02 -5.7088E+02 -5.6774E+02 -5.6467E+02 -5.6170E+02 -5.5884E+02 -5.5613E+02 -5.5358E+02 -5.5120E+02 -5.4900E+02 -5.4700E+02 -5.4519E+02 -5.4359E+02 -5.4218E+02 -5.4096E+02 -5.3993E+02 -5.3907E+02 -5.3836E+02 -5.3781E+02 -5.3738E+02 -5.3707E+02 -5.3686E+02 -5.3673E+02 -5.3668E+02 -5.3669E+02 -5.3675E+02 -5.3685E+02 -5.3698E+02 -5.3714E+02 -5.3732E+02 -5.3752E+02 -5.3773E+02 -5.3794E+02 -5.3816E+02 -5.3839E+02 -5.3863E+02 -5.3889E+02
-5.4286E+02 -5.4339E+02 -5.4417E+02 -5.4499E+02 -5.4581E+02 -5.4657E+02 -5.4729E+02 -5.4801E+02 -5.4867E+02 -5.4925E+02 -5.4972E+02 -5.5009E+02 -5.5032E+02 -5.5040E+02 -5.5033E+02 -5.5007E+02 -5.4965E+02 -5.4904E+02 -5.4825E+02 -5.4728E+02 -5.4615E+02 -5.4487E+02 -5.4346E+02 -5.4192E+02 -5.4028E+02 -5.3857E+02 -5.3679E+02 -5.3498E+02 -5.3315E+02 -5.3132E+02 -5.2950E+02 -5.2771E+02 -5.2596E+02 -5.2425E+02 -5.2260E+02 -5.2101E+02 -5.1947E+02 -5.1799E+02 -5.1655E+02 -5.1517E+02 -5.1383E+02 -5.1252E+02 -5.1125E+02 -5.1000E+02 -5.0877E+02 -5.0756E+02 -5.0636E+02 -5.0517E+02 -5.0399E+02 -5.0281E+02 -5.0163E+02 -5.0046E+02 -4.9929E+02 -4.9812E+02 -4.9695E+02 -4.9579E+02 -4.9464E+02 -4.9349E+02 -4.9236E+02 -4.9123E+02 -4.9013E+02 -4.8905E+02 -4.8800E+02 -4.8699E+02 -4.8601E+02 -4.8509E+02 -4.8423E+02 -4.8344E+02 -4.8274E+02 -4.8213E+02 -4.8162E+02 -4.8125E+02 -4.8101E+02 -4.8092E+02 -4.8100E+02 -4.8127E+02 -4.8173E+02 -4.8240E+02 -4.8330E+02 -4.8442E+02 -4.8578E+02 -4.8738E+02 -4.8922E+02 -4.9128E+02 -4.9357E+02 -4.9607E+02 -4.9877E+02 -5.0164E+02 -5.0467E+02 -5.0784E+02 -5.1111E+02 -5.1447E+02 -5.1790E+02 -5.2137E+02 -5.2486E+02 -5.2836E+02 -5.3184E+02 -5.3529E+02 -5.3870E+02 -5.4205E+02 -5.4535E+02 -5.4858E+02 -5.5175E+02 -5.5484E+02 -5.5786E+02 -5.6081E+02 -5.6369E+02 -5.6652E+02 -5.6929E+02 -5.7201E+02 -5.7470E+02 -5.7734E+02 -5.7996E+02 -5.8254E+02 -5.8510E+02 -5.8762E+02 -5.9009E+02 -5.9250E+02 -5.9484E+02 -5.9708E+02 -5.9920E+02 -6.0116E+02 -6.0293E+02 -6.0448E+02 -6.0578E+02 -6.0681E+02 -6.0752E+02 -6.0791E+02 -6.0796E+02 -6.0765E+02 -6.0699E+02 -6.0599E+02 -6.0465E+02 -6.0299E+02 -6.0104E+02 -5.9882E+02 -5.9637E+02 -5.9370E+02 -5.9087E+02 -5.8790E+02 -5.8482E+02 -5.8166E+02 -5.7847E+02 -5.7526E+02 -5.7207E+02 -5.6893E+02 -5.6585E+02 -5.6286E+02 -5.6000E+02 -5.5726E+02 -5.5469E+02 -5.5228E+02 -5.5005E+02 -5.4801E+02 -5.4617E+02 -5.4452E+02 -5.4307E+02 -5.4181E+02 -5.4073E+02 -5.3982E+02 -5.3908E+02 -5.3848E+02 -5.3802E+02 -5.3767E+02 -5.3743E+02 -5.3727E+02 -5.3719E+02 -5.3718E+02 -5.3722E+02 -5.3730E+02 -5.3741E+02 -5.3755E+02 -5.3772E+02 -5.3790E+02 -5.3810E+02 -5.3830E+02 -5.3851E+02 -5.3873E+02 -5.3897E+02 -5.3921E+02
-5.4552E+02 -5.4605E+02 -5.4680E+02 -5.4759E+02 -5.4836E+02 -5.4909E+02 -5.4978E+02 -5.5045E+02 -5.5107E+02 -5.5162E+02 -5.5207E+02 -5.5241E+02 -5.5262E+02 -5.5270E+02 -5.5261E+02 -5.5237E+02 -5.5195E+02 -5.5135E+02 -5.5058E+02 -5.4964E+02 -5.4854E+02 -5.4728E+02 -5.4589E+02 -5.4437E+02 -5.4274E+02 -5.4104E+02 -5.3926E+02 -5.3744E+02 -5.3559E+02 -5.3373E+02 -5.3188E+02 -5.3004E+02 -5.2824E+02 -5.2649E+02 -5.2477E+02 -5.2312E+02 -5.2151E+02 -5.1996E+02 -5.1846E+02 -5.1700E+02 -5.1559E+02 -5.1422E+02 -5.1288E+02 -5.1156E+02 -5.1027E+02 -5.0899E+02 -5.0773E+02 -5.0648E+02 -5.0524E+02 -5.0400E+02 -5.0276E+02 -5.0153E+02 -5.0030E+02 -4.9907E+02 -4.9785E+02 -4.9663E+02 -4.9542E+02 -4.9421E+02 -4.9302E+02 -4.9183E+02 -4.9067E+02 -4.8953E+02 -4.8842E+02 -4.8735E+02 -4.8633E+02 -4.8535E+02 -4.8444E+02 -4.8361E+02 -4.8286E+02 -4.8221E+02 -4.8168E+02 -4.8128E+02 -4.8102E+02 -4.8092E+02 -4.8100E+02 -4.8127E+02 -4.8174E+02 -4.8243E+02 -4.8335E+02 -4.8450E+02 -4.8589E+02 -4.8752E+02 -4.8939E+02 -4.9149E+02 -4.9381E+02 -4.9634E+02 -4.9906E+02 -5.0196E+02 -5.0501E+02 -5.0819E+02 -5.1148E+02 -5.1486E+02 -5.1829E+02 -5.2177E+02 -5.2526E+02 -5.2876E+02 -5.3224E+02 -5.3569E+02 -5.3911E+02 -5.4247E+02 -5.4578E+02 -5.4902E+02 -5.5220E+02 -5.5531E+02 -5.5835E+02 -5.6133E+02 -5.6424E+02 -5.6710E+02 -5.6991E+02 -5.7267E+02 -5.7539E+02 -5.7807E+02 -5.8072E+02 -5.8334E+02 -5.8593E+02 -5.8847E+02 -5.9097E+02 -5.9341E+02 -5.9576E+02 -5.9801E+02 -6.0014E+02 -6.0210E+02 -6.0387E+02 -6.0543E+02 -6.0673E+02 -6.0775E+02 -6.0846E+02 -6.0885E+02 -6.0890E+02 -6.0860E+02 -6.0795E+02 -6.0695E+02 -6.0562E+02 -6.0398E+02 -6.0204E+02 -5.9983E+02 -5.9739E+02 -5.9474E+02 -5.9191E+02 -5.8895E+02 -5.8588E+02 -5.8274E+02 -5.7955E+02 -5.7634E+02 -5.7315E+02 -5.7000E+02 -5.6692E+02 -5.6393E+02 -5.6105E+02 -5.5830E+02 -5.5570E+02 -5.5327E+02 -5.5101E+02 -5.4894E+02 -5.4707E+02 -5.4538E+02 -5.4390E+02 -5.4260E+02 -5.4148E+02 -5.4054E+02 -5.3976E+02 -5.3913E+02 -5.3863E+02 -5.3825E+02 -5.3798E+02 -5.3779E+02 -5.3769E+02 -5.3765E+02 -5.3767E+02 -5.3773E+02 -5.3783E+02 -5.3796E+02 -5.3811E+02 -5.3829E+02 -5.3847E+02 -5.3866E+02 -5.3886E+02 -5.3908E+02 -5.3930E+02 -5.3954E+02
-5.4818E+02 -5.4871E+02 -5.4944E+02 -5.5019E+02 -5.5092E+02 -5.5160E+02 -5.5226E+02 -5.5289E+02 -5.5348E+02 -5.5399E+02 -5.5440E+02 -5.5472E+02 -5.5491E+02 -5.5497E+02 -5.5488E+02 -5.5463E+02 -5.5422E+02 -5.5364E+02 -5.5289E+02 -5.5197E+02 -5.5089E+02 -5.4966E+02 -5.4829E+02 -5.4679E+02 -5.4519E+02 -5.4349E+02 -5.4172E+02 -5.3989E+02 -5.3803E+02 -5.3615E+02 -5.3427E+02 -5.3240E+02 -5.3055E+02 -5.2874E+02 -5.2698E+02 -5.2525E+02 -5.2358E+02 -5.2196E+02 -5.2039E+02 -5.1887E+02 -5.1738E+02 -5.1594E+02 -5.1453E+02 -5.1314E+02 -5.1178E+02 -5.1044E+02 -5.0912E+02 -5.0780E+02 -5.0650E+02 -5.0520E+02 -5.0390E+02 -5.0261E+02 -5.0132E+02 -5.0003E+02 -4.9874E+02 -4.9746E+02 -4.9618E+02 -4.9492E+02 -4.9366E+02 -4.9242E+02 -4.9119E+02 -4.8999E+02 -4.8882E+02 -4.8769E+02 -4.8661E+02 -4.8558E+02 -4.8463E+02 -4.8375E+02 -4.8296E+02 -4.8228E+02 -4.8172E+02 -4.8130E+02 -4.8103E+02 -4.8092E+02 -4.8100E+02 -4.8128E+02 -4.8177E+02 -4.8248E+02 -4.8342E+02 -4.8460E+02 -4.8602E+02 -4.8768E+02 -4.8958E+02 -4.9172E+02 -4.9407E+02 -4.9663E+02 -4.9938E+02 -5.0230E+02 -5.0537E+02 -5.0857E+02 -5.1187E+02 -5.1525E+02 -5.1869E+02 -5.2217E+02 -5.2567E+02 -5.2916E+02 -5.3265E+02 -5.3610E+02 -5.3952E+02 -5.4289E+02 -5.4620E+02 -5.4946E+02 -5.5265E+02 -5.5578E+02 -5.5884E+02 -5.6185E+02 -5.6479E+02 -5.6769E+02 -5.7053E+02 -5.7333E+02 -5.7609E+02 -5.7881E+02 -5.8150E+02 -5.8415E+02 -5.8677E+02 -5.8935E+02 -5.9187E+02 -5.9432E+02 -5.9669E+02 -5.9895E+02 -6.0108E+02 -6.0305E+02 -6.0482E+02 -6.0637E+02 -6.0767E+02 -6.0868E+02 -6.0939E+02 -6.0977E+02 -6.0982E+02 -6.0951E+02 -6.0886E+02 -6.0787E+02 -6.0654E+02 -6.0490E+02 -6.0296E+02 -6.0076E+02 -5.9833E+02 -5.9569E+02 -5.9287E+02 -5.8992E+02 -5.8685E+02 -5.8371E+02 -5.8052E+02 -5.7732E+02 -5.7413E+02 -5.7098E+02 -5.6789E+02 -5.6489E+02 -5.6199E+02 -5.5923E+02 -5.5662E+02 -5.5417E+02 -5.5189E+02 -5.4979E+02 -5.4789E+02 -5.4618E+02 -5.4466E+02 -5.4333E+02 -5.4219E+02 -5.4121E+02 -5.4040E+02 -5.3974E+02 -5.3921E+02 -5.3880E+02 -5.3851E+02 -5.3830E+02 -5.3817E+02 -5.3812E+02 -5.3812E+02 -5.3816E+02 -5.3825E+02 -5.3836E+02 -5.3850E+02 -5.3866E+02 -5.3884E+02 -5.3902E+02 -5.3921E+02 -5.3942E+02 -5.3964E+02 -5.3987E+02
-5.5084E+02 -5.5138E+02 -5.5208E+02 -5.5279E+02 -5.5348E+02 -5.5412E+02 -5.5474E+02 -5.5534E+02 -5.5588E+02 -5.5635E+02 -5.5674E+02 -5.5702E+02 -5.5719E+02 -5.5724E+02 -5.5714E+02 -5.5689E+02 -5.5648E+02 -5.5591E+02 -5.5518E+02 -5.5428E+02 -5.5323E+02 -5.5202E+02 -5.5068E+02 -5.4920E+02 -5.4762E+02 -5.4594E+02 -5.4417E+02 -5.4235E+02 -5.4048E+02 -5.3858E+02 -5.3668E+02 -5.3477E+02 -5.3289E+02 -5.3103E+02 -5.2921E+02 -5.2743E+02 -5.2569E+02 -5.2400E+02 -5.2236E+02 -5.2076E+02 -5.1921E+02 -5.1769E+02 -5.1621E+02 -5.1475E+02 -5.1332E+02 -5.1191E+02 -5.1052E+02 -5.0914E+02 -5.0776E+02 -5.0640E+02 -5.0504E+02 -5.0368E+02 -5.0233E+02 -5.0097E+02 -4.9963E+02 -4.9828E+02 -4.9694E+02 -4.9561E+02 -4.9429E+02 -4.9298E+02 -4.9169E+02 -4.9043E+02 -4.8920E+02 -4.8801E+02 -4.8687E+02 -4.8579E+02 -4.8478E+02 -4.8386E+02 -4.8304E+02 -4.8233E+02 -4.8175E+02 -4.8131E+02 -4.8103E+02 -4.8092E+02 -4.8101E+02 -4.8130E+02 -4.8181E+02 -4.8255E+02 -4.8352E+02 -4.8473E+02 -4.8619E+02 -4.8789E+02 -4.8983E+02 -4.9199E+02 -4.9438E+02 -4.9697E+02 -4.9975E+02 -5.0269E+02 -5.0578E+02 -5.0899E+02 -5.1230E+02 -5.1569E+02 -5.1913E+02 -5.2261E+02 -5.2611E+02 -5.2961E+02 -5.3309E+02 -5.3654E+02 -5.3996E+02 -5.4333E+02 -5.4666E+02 -5.4992E+02 -5.5313E+02 -5.5627E+02 -5.5936E+02 -5.6239E+02 -5.6537E+02 -5.6829E+02 -5.7117E+02 -5.7401E+02 -5.7680E+02 -5.7956E+02 -5.8229E+02 -5.8498E+02 -5.8763E+02 -5.9023E+02 -5.9278E+02 -5.9525E+02 -5.9764E+02 -5.9991E+02 -6.0204E+02 -6.0401E+02 -6.0577E+02 -6.0732E+02 -6.0860E+02 -6.0960E+02 -6.1030E+02 -6.1067E+02 -6.1070E+02 -6.1039E+02 -6.0973E+02 -6.0873E+02 -6.0740E+02 -6.0575E+02 -6.0382E+02 -6.0162E+02 -5.9919E+02 -5.9655E+02 -5.9374E+02 -5.9078E+02 -5.8772E+02 -5.8458E+02 -5.8140E+02 -5.7819E+02 -5.7500E+02 -5.7184E+02 -5.6875E+02 -5.6574E+02 -5.6284E+02 -5.6007E+02 -5.5744E+02 -5.5497E+02 -5.5268E+02 -5.5057E+02 -5.4864E+02 -5.4691E+02 -5.4537E+02 -5.4401E+02 -5.4284E+02 -5.4184E+02 -5.4100E+02 -5.4031E+02 -5.3976E+02 -5.3933E+02 -5.3901E+02 -5.3879E+02 -5.3864E+02 -5.3857E+02 -5.3855E+02 -5.3859E+02 -5.3866E+02 -5.3876E+02 -5.3889E+02 -5.3904E+02 -5.3921E+02 -5.3938E+02 -5.3956E+02 -5.3976E+02 -5.3997E+02 -5.4020E+02
-5.5349E+02 -5.5404E+02 -5.5471E+02 -5.5539E+02 -5.5604E+02 -5.5664E+02 -5.5723E+02 -5.5778E+02 -5.5829E+02 -5.5872E+02 -5.5907E+02 -5.5933E+02 -5.5947E+02 -5.5950E+02 -5.5939E+02 -5.5913E+02 -5.5873E+02 -5.5817E+02 -5.5745E+02 -5.5657E+02 -5.5554E+02 -5.5437E+02 -5.5305E+02 -5.5160E+02 -5.5004E+02 -5.4837E+02 -5.4662E+02 -5.4480E+02 -5.4293E+02 -5.4103E+02 -5.3910E+02 -5.3717E+02 -5.3524E+02 -5.3334E+02 -5.3146E+02 -5.2962E+02 -5.2783E+02 -5.2607E+02 -5.2436E+02 -5.2269E+02 -5.2106E+02 -5.1947E+02 -5.1791E+02 -5.1638E+02 -5.1488E+02 -5.1340E+02 -5.1193E+02 -5.1048E+02 -5.0904E+02 -5.0761E+02 -5.0618E+02 -5.0476E+02 -5.0334E+02 -5.0192E+02 -5.0050E+02 -4.9909E+02 -4.9768E+02 -4.9628E+02 -4.9490E+02 -4.9352E+02 -4.9217E+02 -4.9084E+02 -4.8955E+02 -4.8830E+02 -4.8711E+02 -4.8597E+02 -4.8492E+02 -4.8396E+02 -4.8310E+02 -4.8236E+02 -4.8176E+02 -4.8131E+02 -4.8103E+02 -4.8093E+02 -4.8103E+02 -4.8134E+02 -4.8188E+02 -4.8265E+02 -4.8366E+02 -4.8491E+02 -4.8641E+02 -4.8815E+02 -4.9013E+02 -4.9233E+02 -4.9475E+02 -4.9738E+02 -5.0018E+02 -5.0314E+02 -5.0625E+02 -5.0947E+02 -5.1279E+02 -5.1619E+02 -5.1964E+02 -5.2312E+02 -5.2661E+02 -5.3011E+02 -5.3359E+02 -5.3705E+02 -5.4047E+02 -5.4384E+02 -5.4717E+02 -5.5044E+02 -5.5366E+02 -5.5683E+02 -5.5993E+02 -5.6299E+02 -5.6599E+02 -5.6894E+02 -5.7185E+02 -5.7472E+02 -5.7756E+02 -5.8035E+02 -5.8311E+02 -5.8584E+02 -5.8852E+02 -5.9115E+02 -5.9372E+02 -5.9621E+02 -5.9860E+02 -6.0088E+02 -6.0301E+02 -6.0497E+02 -6.0673E+02 -6.0826E+02 -6.0952E+02 -6.1051E+02 -6.1119E+02 -6.1154E+02 -6.1155E+02 -6.1122E+02 -6.1055E+02 -6.0954E+02 -6.0819E+02 -6.0654E+02 -6.0461E+02 -6.0240E+02 -5.9997E+02 -5.9733E+02 -5.9452E+02 -5.9156E+02 -5.8850E+02 -5.8536E+02 -5.8217E+02 -5.7896E+02 -5.7577E+02 -5.7261E+02 -5.6951E+02 -5.6649E+02 -5.6359E+02 -5.6080E+02 -5.5817E+02 -5.5569E+02 -5.5338E+02 -5.5125E+02 -5.4931E+02 -5.4756E+02 -5.4600E+02 -5.4463E+02 -5.4344E+02 -5.4242E+02 -5.4156E+02 -5.4085E+02 -5.4028E+02 -5.3984E+02 -5.3950E+02 -5.3926E+02 -5.3910E+02 -5.3901E+02 -5.3898E+02 -5.3900E+02 -5.3906E+02 -5.3915E+02 -5.3927E+02 -5.3941E+02 -5.3957E+02 -5.3973E+02 -5.3991E+02 -5.4010E+02 -5.4030E+02 -5.4053E+02
-5.5614E+02 -5.5670E+02 -5.5735E+02 -5.5800E+02 -5.5861E+02 -5.5917E+02 -5.5972E+02 -5.6024E+02 -5.6071E+02 -5.6110E+02 -5.6142E+02 -5.6164E+02 -5.6176E+02 -5.6177E+02 -5.6164E+02 -5.6138E+02 -5.6098E+02 -5.6043E+02 -5.5972E+02 -5.5886E+02 -5.5786E+02 -5.5671E+02 -5.5541E+02 -5.5399E+02 -5.5245E+02 -5.5081E+02 -5.4907E+02 -5.4726E+02 -5.4539E+02 -5.4348E+02 -5.4153E+02 -5.3958E+02 -5.3762E+02 -5.3567E+02 -5.3375E+02 -5.3185E+02 -5.2999E+02 -5.2817E+02 -5.2638E+02 -5.2464E+02 -5.2294E+02 -5.2127E+02 -5.1964E+02 -5.1803E+02 -5.1645E+02 -5.1490E+02 -5.1336E+02 -5.1184E+02 -5.1033E+02 -5.0882E+02 -5.0733E+02 -5.0583E+02 -5.0434E+02 -5.0286E+02 -5.0137E+02 -4.9989E+02 -4.9842E+02 -4.9695E+02 -4.9549E+02 -4.9405E+02 -4.9263E+02 -4.9123E+02 -4.8988E+02 -4.8857E+02 -4.8732E+02 -4.8613E+02 -4.8503E+02 -4.8403E+02 -4.8314E+02 -4.8238E+02 -4.8177E+02 -4.8131E+02 -4.8104E+02 -4.8095E+02 -4.8107E+02 -4.8141E+02 -4.8198E+02 -4.8279E+02 -4.8384E+02 -4.8514E+02 -4.8669E+02 -4.8848E+02 -4.9050E+02 -4.9275E+02 -4.9521E+02 -4.9786E+02 -5.0069E+02 -5.0368E+02 -5.0681E+02 -5.1005E+02 -5.1338E+02 -5.1678E+02 -5.2023E+02 -5.2371E+02 -5.2721E+02 -5.3070E+02 -5.3418E+02 -5.3764E+02 -5.4106E+02 -5.4444E+02 -5.4777E+02 -5.5105E+02 -5.5428E+02 -5.5746E+02 -5.6058E+02 -5.6365E+02 -5.6668E+02 -5.6966E+02 -5.7260E+02 -5.7550E+02 -5.7836E+02 -5.8119E+02 -5.8398E+02 -5.8673E+02 -5.8944E+02 -5.9209E+02 -5.9468E+02 -5.9718E+02 -5.9958E+02 -6.0186E+02 -6.0399E+02 -6.0594E+02 -6.0768E+02 -6.0919E+02 -6.1044E+02 -6.1140E+02 -6.1205E+02 -6.1238E+02 -6.1237E+02 -6.1202E+02 -6.1132E+02 -6.1029E+02 -6.0893E+02 -6.0727E+02 -6.0532E+02 -6.0311E+02 -6.0067E+02 -5.9802E+02 -5.9521E+02 -5.9225E+02 -5.8918E+02 -5.8604E+02 -5.8285E+02 -5.7964E+02 -5.7644E+02 -5.7327E+02 -5.7017E+02 -5.6715E+02 -5.6424E+02 -5.6145E+02 -5.5880E+02 -5.5632E+02 -5.5400E+02 -5.5186E+02 -5.4991E+02 -5.4815E+02 -5.4658E+02 -5.4519E+02 -5.4398E+02 -5.4295E+02 -5.4208E+02 -5.4136E+02 -5.4077E+02 -5.4031E+02 -5.3996E+02 -5.3970E+02 -5.3953E+02 -5.3943E+02 -5.3939E+02 -5.3940E+02 -5.3945E+02 -5.3954E+02 -5.3965E+02 -5.3978E+02 -5.3994E+02 -5.4008E+02 -5.4025E+02 -5.4044E+02 -5.4064E+02 -5.4085E+02
-5.5879E+02 -5.5936E+02 -5.5999E+02 -5.6061E+02 -5.6119E+02 -5.6171E+02 -5.6223E+02 -5.6271E+02 -5.6314E+02 -5.6350E+02 -5.6378E+02 -5.6398E+02 -5.6407E+02 -5.6405E+02 -5.6392E+02 -5.6365E+02 -5.6324E+02 -5.6269E+02 -5.6200E+02 -5.6116E+02 -5.6017E+02 -5.5905E+02 -5.5778E+02 -5.5639E+02 -5.5487E+02 -5.5325E+02 -5.5153E+02 -5.4972E+02 -5.4786E+02 -5.4593E+02 -5.4398E+02 -5.4200E+02 -5.4001E+02 -5.3802E+02 -5.3605E+02 -5.3410E+02 -5.3218E+02 -5.3029E+02 -5.2844E+02 -5.2662E+02 -5.2484E+02 -5.2310E+02 -5.2139E+02 -5.1971E+02 -5.1805E+02 -5.1642E+02 -5.1481E+02 -5.1321E+02 -5.1162E+02 -5.1005E+02 -5.0848E+02 -5.0691E+02 -5.0535E+02 -5.0379E+02 -5.0224E+02 -5.0068E+02 -4.9913E+02 -4.9759E+02 -4.9606E+02 -4.9455E+02 -4.9306E+02 -4.9160E+02 -4.9018E+02 -4.8881E+02 -4.8750E+02 -4.8627E+02 -4.8513E+02 -4.8409E+02 -4.8317E+02 -4.8240E+02 -4.8177E+02 -4.8132E+02 -4.8105E+02 -4.8099E+02 -4.8114E+02 -4.8152E+02 -4.8213E+02 -4.8299E+02 -4.8409E+02 -4.8544E+02 -4.8704E+02 -4.8888E+02 -4.9095E+02 -4.9325E+02 -4.9575E+02 -4.9844E+02 -5.0130E+02 -5.0432E+02 -5.0746E+02 -5.1072E+02 -5.1406E+02 -5.1747E+02 -5.2093E+02 -5.2441E+02 -5.2791E+02 -5.3140E+02 -5.3489E+02 -5.3834E+02 -5.4176E+02 -5.4514E+02 -5.4848E+02 -5.5176E+02 -5.5500E+02 -5.5819E+02 -5.6132E+02 -5.6441E+02 -5.6745E+02 -5.7046E+02 -5.7342E+02 -5.7634E+02 -5.7923E+02 -5.8209E+02 -5.8490E+02 -5.8768E+02 -5.9041E+02 -5.9308E+02 -5.9568E+02 -5.9819E+02 -6.0059E+02 -6.0286E+02 -6.0498E+02 -6.0691E+02 -6.0864E+02 -6.1012E+02 -6.1134E+02 -6.1227E+02 -6.1289E+02 -6.1319E+02 -6.1315E+02 -6.1277E+02 -6.1204E+02 -6.1099E+02 -6.0961E+02 -6.0793E+02 -6.0597E+02 -6.0375E+02 -6.0129E+02 -5.9864E+02 -5.9581E+02 -5.9285E+02 -5.8978E+02 -5.8663E+02 -5.8343E+02 -5.8022E+02 -5.7702E+02 -5.7385E+02 -5.7074E+02 -5.6771E+02 -5.6480E+02 -5.6200E+02 -5.5936E+02 -5.5686E+02 -5.5454E+02 -5.5240E+02 -5.5044E+02 -5.4867E+02 -5.4709E+02 -5.4569E+02 -5.4448E+02 -5.4344E+02 -5.4255E+02 -5.4182E+02 -5.4123E+02 -5.4076E+02 -5.4039E+02 -5.4013E+02 -5.3995E+02 -5.3984E+02 -5.3979E+02 -5.3980E+02 -5.3984E+02 -5.3992E+02 -5.4002E+02 -5.4015E+02 -5.4030E+02 -5.4044E+02 -5.4060E+02 -5.4078E+02 -5.4097E+02 -5.4118E+02
-5.6143E+02 -5.6202E+02 -5.6264E+02 -5.6322E+02 -5.6377E+02 -5.6426E+02 -5.6475E+02 -5.6520E+02 -5.6560E+02 -5.6592E+02 -5.6617E+02 -5.6634E+02 -5.6641E+02 -5.6637E+02 -5.6621E+02 -5.6593E+02 -5.6553E+02 -5.6498E+02 -5.6430E+02 -5.6347E+02 -5.6250E+02 -5.6140E+02 -5.6016E+02 -5.5878E+02 -5.5729E+02 -5.5569E+02 -5.5398E+02 -5.5219E+02 -5.5033E+02 -5.4840E+02 -5.4643E+02 -5.4443E+02 -5.4241E+02 -5.4039E+02 -5.3837E+02 -5.3637E+02 -5.3439E+02 -5.3243E+02 -5.3051E+02 -5.2862E+02 -5.2677E+02 -5.2495E+02 -5.2316E+02 -5.2140E+02 -5.1967E+02 -5.1796E+02 -5.1627E+02 -5.1459E+02 -5.1293E+02 -5.1128E+02 -5.0963E+02 -5.0799E+02 -5.0636E+02 -5.0472E+02 -5.0309E+02 -5.0146E+02 -4.9984E+02 -4.9823E+02 -4.9662E+02 -4.9504E+02 -4.9348E+02 -4.9195E+02 -4.9046E+02 -4.8903E+02 -4.8767E+02 -4.8639E+02 -4.8520E+02 -4.8413E+02 -4.8320E+02 -4.8240E+02 -4.8178E+02 -4.8133E+02 -4.8108E+02 -4.8105E+02 -4.8123E+02 -4.8166E+02 -4.8232E+02 -4.8323E+02 -4.8440E+02 -4.8581E+02 -4.8747E+02 -4.8937E+02 -4.9149E+02 -4.9384E+02 -4.9639E+02 -4.9912E+02 -5.0202E+02 -5.0506E+02 -5.0823E+02 -5.1150E+02 -5.1486E+02 -5.1828E+02 -5.2174E+02 -5.2523E+02 -5.2873E+02 -5.3223E+02 -5.3571E+02 -5.3917E+02 -5.4259E+02 -5.4597E+02 -5.4931E+02 -5.5260E+02 -5.5584E+02 -5.5903E+02 -5.6218E+02 -5.6528E+02 -5.6834E+02 -5.7135E+02 -5.7433E+02 -5.7727E+02 -5.8018E+02 -5.8306E+02 -5.8589E+02 -5.8868E+02 -5.9143E+02 -5.9411E+02 -5.9671E+02 -5.9922E+02 -6.0162E+02 -6.0389E+02 -6.0599E+02 -6.0790E+02 -6.0959E+02 -6.1105E+02 -6.1223E+02 -6.1313E+02 -6.1371E+02 -6.1397E+02 -6.1389E+02 -6.1347E+02 -6.1272E+02 -6.1164E+02 -6.1023E+02 -6.0853E+02 -6.0654E+02 -6.0431E+02 -6.0184E+02 -5.9917E+02 -5.9634E+02 -5.9337E+02 -5.9029E+02 -5.8713E+02 -5.8393E+02 -5.8071E+02 -5.7750E+02 -5.7433E+02 -5.7122E+02 -5.6819E+02 -5.6527E+02 -5.6248E+02 -5.5983E+02 -5.5733E+02 -5.5501E+02 -5.5286E+02 -5.5090E+02 -5.4913E+02 -5.4754E+02 -5.4614E+02 -5.4492E+02 -5.4388E+02 -5.4299E+02 -5.4225E+02 -5.4165E+02 -5.4118E+02 -5.4081E+02 -5.4054E+02 -5.4036E+02 -5.4024E+02 -5.4019E+02 -5.4019E+02 -5.4022E+02 -5.4029E+02 -5.4039E+02 -5.4051E+02 -5.4065E+02 -5.4079E+02 -5.4095E+02 -5.4112E+02 -5.4130E+02 -5.4151E+02
-5.6406E+02 -5.6467E+02 -5.6528E+02 -5.6584E+02 -5.6636E+02 -5.6682E+02 -5.6729E+02 -5.6771E+02 -5.6807E+02 -5.6837E+02 -5.6859E+02 -5.6873E+02 -5.6877E+02 -5.6871E+02 -5.6854E+02 -5.6825E+02 -5.6784E+02 -5.6730E+02 -5.6662E+02 -5.6581E+02 -5.6486E+02 -5.6377E+02 -5.6255E+02 -5.6120E+02 -5.5972E+02 -5.5814E+02 -5.5645E+02 -5.5466E+02 -5.5280E+02 -5.5087E+02 -5.4889E+02 -5.4687E+02 -5.4483E+02 -5.4277E+02 -5.4071E+02 -5.3865E+02 -5.3662E+02 -5.3460E+02 -5.3261E+02 -5.3065E+02 -5.2872E+02 -5.2682E+02 -5.2495E+02 -5.2311E+02 -5.2130E+02 -5.1951E+02 -5.1774E+02 -5.1599E+02 -5.1425E+02 -5.1252E+02 -5.1079E+02 -5.0908E+02 -5.0736E+02 -5.0565E+02 -5.0394E+02 -5.0224E+02 -5.0054E+02 -4.9884E+02 -4.9717E+02 -4.9551E+02 -4.9387E+02 -4.9227E+02 -4.9072E+02 -4.8923E+02 -4.8782E+02 -4.8649E+02 -4.8527E+02 -4.8417E+02 -4.8321E+02 -4.8241E+02 -4.8179E+02 -4.8136E+02 -4.8114E+02 -4.8113E+02 -4.8137E+02 -4.8184E+02 -4.8256E+02 -4.8354E+02 -4.8476E+02 -4.8624E+02 -4.8797E+02 -4.8993E+02 -4.9212E+02 -4.9452E+02 -4.9712E+02 -4.9990E+02 -5.0283E+02 -5.0591E+02 -5.0910E+02 -5.1240E+02 -5.1577E+02 -5.1921E+02 -5.2268E+02 -5.2618E+02 -5.2968E+02 -5.3318E+02 -5.3667E+02 -5.4013E+02 -5.4355E+02 -5.4693E+02 -5.5027E+02 -5.5357E+02 -5.5681E+02 -5.6001E+02 -5.6316E+02 -5.6626E+02 -5.6933E+02 -5.7236E+02 -5.7535E+02 -5.7830E+02 -5.8122E+02 -5.8411E+02 -5.8695E+02 -5.8976E+02 -5.9250E+02 -5.9519E+02 -5.9779E+02 -6.0030E+02 -6.0269E+02 -6.0493E+02 -6.0701E+02 -6.0889E+02 -6.1056E+02 -6.1197E+02 -6.1311E+02 -6.1396E+02 -6.1450E+02 -6.1472E+02 -6.1460E+02 -6.1414E+02 -6.1335E+02 -6.1223E+02 -6.1079E+02 -6.0906E+02 -6.0705E+02 -6.0479E+02 -6.0231E+02 -5.9963E+02 -5.9678E+02 -5.9380E+02 -5.9071E+02 -5.8755E+02 -5.8435E+02 -5.8112E+02 -5.7791E+02 -5.7473E+02 -5.7162E+02 -5.6859E+02 -5.6567E+02 -5.6288E+02 -5.6023E+02 -5.5773E+02 -5.5541E+02 -5.5326E+02 -5.5130E+02 -5.4953E+02 -5.4795E+02 -5.4655E+02 -5.4533E+02 -5.4428E+02 -5.4339E+02 -5.4265E+02 -5.4205E+02 -5.4157E+02 -5.4121E+02 -5.4094E+02 -5.4075E+02 -5.4063E+02 -5.4058E+02 -5.4057E+02 -5.4060E+02 -5.4067E+02 -5.4076E+02 -5.4088E+02 -5.4101E+02 -5.4115E+02 -5.4130E+02 -5.4146E+02 -5.4164E+02 -5.4184E+02
-5.6669E+02 -5.6732E+02 -5.6792E+02 -5.6847E+02 -5.6897E+02 -5.6940E+02 -5.6985E+02 -5.7025E+02 -5.7058E+02 -5.7085E+02 -5.7104E+02 -5.7116E+02 -5.7118E+02 -5.7110E+02 -5.7092E+02 -5.7062E+02 -5.7020E+02 -5.6966E+02 -5.6898E+02 -5.6818E+02 -5.6724E+02 -5.6616E+02 -5.6496E+02 -5.6363E+02 -5.6217E+02 -5.6060E+02 -5.5892E+02 -5.5715E+02 -5.5529E+02 -5.5336E+02 -5.5137E+02 -5.4933E+02 -5.4726E+02 -5.4516E+02 -5.4306E+02 -5.4096E+02 -5.3886E+02 -5.3678E+02 -5.3473E+02 -5.3270E+02 -5.3069E+02 -5.2872E+02 -5.2677E+02 -5.2485E+02 -5.2295E+02 -5.2108E+02 -5.1923E+02 -5.1740E+02 -5.1557E+02 -5.1376E+02 -5.1196E+02 -5.1016E+02 -5.0837E+02 -5.0658E+02 -5.0479E+02 -5.0300E+02 -5.0122E+02 -4.9945E+02 -4.9770E+02 -4.9596E+02 -4.9425E+02 -4.9258E+02 -4.9097E+02 -4.8942E+02 -4.8795E+02 -4.8658E+02 -4.8532E+02 -4.8420E+02 -4.8322E+02 -4.8242E+02 -4.8181E+02 -4.8140E+02 -4.8121E+02 -4.8125E+02 -4.8153E+02 -4.8206E+02 -4.8285E+02 -4.8390E+02 -4.8520E+02 -4.8675E+02 -4.8854E+02 -4.9058E+02 -4.9283E+02 -4.9529E+02 -4.9794E+02 -5.0077E+02 -5.0375E+02 -5.0686E+02 -5.1009E+02 -5.1341E+02 -5.1680E+02 -5.2025E+02 -5.2374E+02 -5.2724E+02 -5.3076E+02 -5.3427E+02 -5.3776E+02 -5.4122E+02 -5.4465E+02 -5.4803E+02 -5.5137E+02 -5.5467E+02 -5.5792E+02 -5.6111E+02 -5.6427E+02 -5.6738E+02 -5.7045E+02 -5.7348E+02 -5.7647E+02 -5.7943E+02 -5.8236E+02 -5.8525E+02 -5.8810E+02 -5.9090E+02 -5.9365E+02 -5.9633E+02 -5.9892E+02 -6.0142E+02 -6.0378E+02 -6.0600E+02 -6.0805E+02 -6.0990E+02 -6.1152E+02 -6.1289E+02 -6.1399E+02 -6.1479E+02 -6.1527E+02 -6.1544E+02 -6.1527E+02 -6.1476E+02 -6.1393E+02 -6.1277E+02 -6.1130E+02 -6.0953E+02 -6.0750E+02 -6.0521E+02 -6.0271E+02 -6.0001E+02 -5.9715E+02 -5.9416E+02 -5.9106E+02 -5.8789E+02 -5.8468E+02 -5.8145E+02 -5.7824E+02 -5.7506E+02 -5.7195E+02 -5.6892E+02 -5.6600E+02 -5.6321E+02 -5.6056E+02 -5.5807E+02 -5.5575E+02 -5.5361E+02 -5.5165E+02 -5.4988E+02 -5.4830E+02 -5.4691E+02 -5.4569E+02 -5.4465E+02 -5.4376E+02 -5.4303E+02 -5.4243E+02 -5.4196E+02 -5.4159E+02 -5.4132E+02 -5.4113E+02 -5.4102E+02 -5.4096E+02 -5.4095E+02 -5.4098E+02 -5.4105E+02 -5.4114E+02 -5.4125E+02 -5.4138E+02 -5.4150E+02 -5.4165E+02 -5.4181E+02 -5.4198E+02 -5.4216E+02
-5.6931E+02 -5.6996E+02 -5.7056E+02 -5.7110E+02 -5.7158E+02 -5.7199E+02 -5.7243E+02 -5.7281E+02 -5.7312E+02 -5.7337E+02 -5.7354E+02 -5.7363E+02 -5.7364E+02 -5.7354E+02 -5.7334E+02 -5.7303E+02 -5.7261E+02 -5.7206E+02 -5.7139E+02 -5.7059E+02 -5.6966E+02 -5.6860E+02 -5.6741E+02 -5.6609E+02 -5.6464E+02 -5.6309E+02 -5.6142E+02 -5.5965E+02 -5.5779E+02 -5.5585E+02 -5.5385E+02 -5.5179E+02 -5.4969E+02 -5.4757E+02 -5.4542E+02 -5.4327E+02 -5.4112E+02 -5.3899E+02 -5.3686E+02 -5.3476E+02 -5.3268E+02 -5.3063E+02 -5.2860E+02 -5.2660E+02 -5.2463E+02 -5.2267E+02 -5.2074E+02 -5.1882E+02 -5.1692E+02 -5.1502E+02 -5.1314E+02 -5.1126E+02 -5.0938E+02 -5.0751E+02 -5.0563E+02 -5.0377E+02 -5.0190E+02 -5.0005E+02 -4.9821E+02 -4.9640E+02 -4.9462E+02 -4.9288E+02 -4.9120E+02 -4.8959E+02 -4.8807E+02 -4.8666E+02 -4.8537E+02 -4.8422E+02 -4.8324E+02 -4.8244E+02 -4.8184E+02 -4.8146E+02 -4.8131E+02 -4.8140E+02 -4.8174E+02 -4.8233E+02 -4.8319E+02 -4.8431E+02 -4.8569E+02 -4.8732E+02 -4.8919E+02 -4.9129E+02 -4.9361E+02 -4.9614E+02 -4.9885E+02 -5.0173E+02 -5.0475E+02 -5.0790E+02 -5.1116E+02 -5.1451E+02 -5.1793E+02 -5.2140E+02 -5.2490E+02 -5.2843E+02 -5.3195E+02 -5.3547E+02 -5.3897E+02 -5.4244E+02 -5.4588E+02 -5.4927E+02 -5.5261E+02 -5.5591E+02 -5.5916E+02 -5.6235E+02 -5.6551E+02 -5.6862E+02 -5.7168E+02 -5.7471E+02 -5.7771E+02 -5.8067E+02 -5.8359E+02 -5.8648E+02 -5.8932E+02 -5.9212E+02 -5.9486E+02 -5.9753E+02 -6.0011E+02 -6.0258E+02 -6.0492E+02 -6.0711E+02 -6.0911E+02 -6.1092E+02 -6.1249E+02 -6.1381E+02 -6.1485E+02 -6.1559E+02 -6.1602E+02 -6.1613E+02 -6.1591E+02 -6.1535E+02 -6.1446E+02 -6.1326E+02 -6.1175E+02 -6.0994E+02 -6.0788E+02 -6.0557E+02 -6.0304E+02 -6.0032E+02 -5.9745E+02 -5.9444E+02 -5.9134E+02 -5.8816E+02 -5.8494E+02 -5.8172E+02 -5.7850E+02 -5.7532E+02 -5.7221E+02 -5.6919E+02 -5.6627E+02 -5.6348E+02 -5.6084E+02 -5.5835E+02 -5.5604E+02 -5.5391E+02 -5.5196E+02 -5.5020E+02 -5.4862E+02 -5.4724E+02 -5.4603E+02 -5.4499E+02 -5.4411E+02 -5.4339E+02 -5.4279E+02 -5.4233E+02 -5.4197E+02 -5.4170E+02 -5.4152E+02 -5.4140E+02 -5.4135E+02 -5.4134E+02 -5.4137E+02 -5.4143E+02 -5.4151E+02 -5.4162E+02 -5.4175E+02 -5.4187E+02 -5.4200E+02 -5.4215E+02 -5.4232E+02 -5.4250E+02
-5.7193E+02 -5.7260E+02 -5.7321E+02 -5.7373E+02 -5.7421E+02 -5.7461E+02 -5.7503E+02 -5.7540E+02 -5.7570E+02 -5.7593E+02 -5.7608E+02 -5.7616E+02 -5.7615E+02 -5.7604E+02 -5.7583E+02 -5.7551E+02 -5.7508E+02 -5.7452E+02 -5.7385E+02 -5.7305E+02 -5.7213E+02 -5.7107E+02 -5.6989E+02 -5.6858E+02 -5.6715E+02 -5.6560E+02 -5.6393E+02 -5.6216E+02 -5.6030E+02 -5.5836E+02 -5.5634E+02 -5.5427E+02 -5.5214E+02 -5.4998E+02 -5.4780E+02 -5.4560E+02 -5.4340E+02 -5.4120E+02 -5.3902E+02 -5.3685E+02 -5.3469E+02 -5.3256E+02 -5.3046E+02 -5.2838E+02 -5.2632E+02 -5.2428E+02 -5.2226E+02 -5.2026E+02 -5.1827E+02 -5.1629E+02 -5.1432E+02 -5.1236E+02 -5.1040E+02 -5.0844E+02 -5.0648E+02 -5.0453E+02 -5.0258E+02 -5.0064E+02 -4.9872E+02 -4.9683E+02 -4.9497E+02 -4.9317E+02 -4.9142E+02 -4.8975E+02 -4.8818E+02 -4.8673E+02 -4.8541E+02 -4.8425E+02 -4.8327E+02 -4.8248E+02 -4.8190E+02 -4.8155E+02 -4.8144E+02 -4.8158E+02 -4.8198E+02 -4.8265E+02 -4.8358E+02 -4.8478E+02 -4.8623E+02 -4.8794E+02 -4.8989E+02 -4.9207E+02 -4.9447E+02 -4.9706E+02 -4.9983E+02 -5.0276E+02 -5.0583E+02 -5.0903E+02 -5.1232E+02 -5.1570E+02 -5.1915E+02 -5.2265E+02 -5.2617E+02 -5.2971E+02 -5.3326E+02 -5.3679E+02 -5.4030E+02 -5.4378E+02 -5.4723E+02 -5.5062E+02 -5.5397E+02 -5.5727E+02 -5.6052E+02 -5.6372E+02 -5.6687E+02 -5.6998E+02 -5.7304E+02 -5.7607E+02 -5.7906E+02 -5.8201E+02 -5.8492E+02 -5.8780E+02 -5.9064E+02 -5.9342E+02 -5.9614E+02 -5.9879E+02 -6.0134E+02 -6.0378E+02 -6.0609E+02 -6.0824E+02 -6.1020E+02 -6.1195E+02 -6.1347E+02 -6.1473E+02 -6.1571E+02 -6.1639E+02 -6.1675E+02 -6.1680E+02 -6.1651E+02 -6.1589E+02 -6.1495E+02 -6.1370E+02 -6.1214E+02 -6.1030E+02 -6.0819E+02 -6.0585E+02 -6.0330E+02 -6.0056E+02 -5.9767E+02 -5.9466E+02 -5.9154E+02 -5.8836E+02 -5.8514E+02 -5.8191E+02 -5.7870E+02 -5.7553E+02 -5.7242E+02 -5.6940E+02 -5.6649E+02 -5.6371E+02 -5.6108E+02 -5.5860E+02 -5.5630E+02 -5.5417E+02 -5.5223E+02 -5.5048E+02 -5.4892E+02 -5.4754E+02 -5.4635E+02 -5.4532E+02 -5.4445E+02 -5.4374E+02 -5.4315E+02 -5.4269E+02 -5.4234E+02 -5.4208E+02 -5.4190E+02 -5.4179E+02 -5.4174E+02 -5.4173E+02 -5.4176E+02 -5.4182E+02 -5.4190E+02 -5.4200E+02 -5.4212E+02 -5.4224E+02 -5.4237E+02 -5.4251E+02 -5.4266E+02 -5.4283E+02
-5.7453E+02 -5.7524E+02 -5.7585E+02 -5.7638E+02 -5.7685E+02 -5.7724E+02 -5.7767E+02 -5.7802E+02 -5.7831E+02 -5.7853E+02 -5.7867E+02 -5.7874E+02 -5.7872E+02 -5.7860E+02 -5.7837E+02 -5.7805E+02 -5.7761E+02 -5.7705E+02 -5.7638E+02 -5.7558E+02 -5.7466E+02 -5.7360E+02 -5.7242E+02 -5.7112E+02 -5.6969E+02 -5.6814E+02 -5.6648E+02 -5.6471E+02 -5.6284E+02 -5.6088E+02 -5.5885E+02 -5.5676E+02 -5.5461E+02 -5.5241E+02 -5.5019E+02 -5.4795E+02 -5.4569E+02 -5.4344E+02 -5.4119E+02 -5.3895E+02 -5.3672E+02 -5.3452E+02 -5.3234E+02 -5.3017E+02 -5.2803E+02 -5.2591E+02 -5.2381E+02 -5.2172E+02 -5.1964E+02 -5.1758E+02 -5.1552E+02 -5.1347E+02 -5.1142E+02 -5.0937E+02 -5.0733E+02 -5.0529E+02 -5.0325E+02 -5.0123E+02 -4.9923E+02 -4.9726E+02 -4.9533E+02 -4.9345E+02 -4.9164E+02 -4.8992E+02 -4.8830E+02 -4.8681E+02 -4.8547E+02 -4.8429E+02 -4.8331E+02 -4.8253E+02 -4.8197E+02 -4.8166E+02 -4.8159E+02 -4.8179E+02 -4.8226E+02 -4.8300E+02 -4.8401E+02 -4.8529E+02 -4.8683E+02 -4.8862E+02 -4.9065E+02 -4.9290E+02 -4.9537E+02 -4.9803E+02 -5.0086E+02 -5.0385E+02 -5.0697E+02 -5.1021E+02 -5.1355E+02 -5.1697E+02 -5.2045E+02 -5.2397E+02 -5.2752E+02 -5.3109E+02 -5.3465E+02 -5.3821E+02 -5.4174E+02 -5.4523E+02 -5.4869E+02 -5.5210E+02 -5.5545E+02 -5.5876E+02 -5.6201E+02 -5.6521E+02 -5.6836E+02 -5.7146E+02 -5.7452E+02 -5.7754E+02 -5.8051E+02 -5.8345E+02 -5.8636E+02 -5.8922E+02 -5.9204E+02 -5.9480E+02 -5.9749E+02 -6.0011E+02 -6.0263E+02 -6.0504E+02 -6.0730E+02 -6.0940E+02 -6.1131E+02 -6.1300E+02 -6.1445E+02 -6.1565E+02 -6.1656E+02 -6.1716E+02 -6.1746E+02 -6.1743E+02 -6.1708E+02 -6.1640E+02 -6.1540E+02 -6.1408E+02 -6.1248E+02 -6.1059E+02 -6.0845E+02 -6.0608E+02 -6.0350E+02 -6.0074E+02 -5.9783E+02 -5.9480E+02 -5.9168E+02 -5.8850E+02 -5.8528E+02 -5.8205E+02 -5.7884E+02 -5.7568E+02 -5.7258E+02 -5.6957E+02 -5.6667E+02 -5.6390E+02 -5.6128E+02 -5.5882E+02 -5.5653E+02 -5.5442E+02 -5.5249E+02 -5.5076E+02 -5.4921E+02 -5.4785E+02 -5.4666E+02 -5.4565E+02 -5.4480E+02 -5.4409E+02 -5.4352E+02 -5.4307E+02 -5.4273E+02 -5.4248E+02 -5.4230E+02 -5.4220E+02 -5.4214E+02 -5.4214E+02 -5.4216E+02 -5.4222E+02 -5.4230E+02 -5.4240E+02 -5.4251E+02 -5.4261E+02 -5.4274E+02 -5.4287E+02 -5.4301E+02 -5.4316E+02
-5.7713E+02 -5.7787E+02 -5.7849E+02 -5.7903E+02 -5.7950E+02 -5.7989E+02 -5.8032E+02 -5.8068E+02 -5.8097E+02 -5.8118E+02 -5.8132E+02 -5.8138E+02 -5.8135E+02 -5.8122E+02 -5.8099E+02 -5.8066E+02 -5.8021E+02 -5.7965E+02 -5.7897E+02 -5.7817E+02 -5.7725E+02 -5.7619E+02 -5.7501E+02 -5.7371E+02 -5.7228E+02 -5.7072E+02 -5.6906E+02 -5.6728E+02 -5.6540E+02 -5.6344E+02 -5.6139E+02 -5.5927E+02 -5.5709E+02 -5.5486E+02 -5.5260E+02 -5.5031E+02 -5.4800E+02 -5.4569E+02 -5.4338E+02 -5.4107E+02 -5.3878E+02 -5.3650E+02 -5.3423E+02 -5.3199E+02 -5.2977E+02 -5.2756E+02 -5.2537E+02 -5.2320E+02 -5.2103E+02 -5.1888E+02 -5.1673E+02 -5.1459E+02 -5.1245E+02 -5.1032E+02 -5.0818E+02 -5.0605E+02 -5.0393E+02 -5.0182E+02 -4.9974E+02 -4.9769E+02 -4.9568E+02 -4.9373E+02 -4.9186E+02 -4.9008E+02 -4.8842E+02 -4.8690E+02 -4.8554E+02 -4.8435E+02 -4.8337E+02 -4.8261E+02 -4.8208E+02 -4.8180E+02 -4.8179E+02 -4.8205E+02 -4.8258E+02 -4.8340E+02 -4.8449E+02 -4.8584E+02 -4.8747E+02 -4.8934E+02 -4.9145E+02 -4.9378E+02 -4.9632E+02 -4.9904E+02 -5.0193E+02 -5.0498E+02 -5.0815E+02 -5.1144E+02 -5.1482E+02 -5.1828E+02 -5.2180E+02 -5.2536E+02 -5.2894E+02 -5.3253E+02 -5.3613E+02 -5.3970E+02 -5.4326E+02 -5.4677E+02 -5.5024E+02 -5.5367E+02 -5.5704E+02 -5.6035E+02 -5.6361E+02 -5.6681E+02 -5.6996E+02 -5.7305E+02 -5.7610E+02 -5.7911E+02 -5.8208E+02 -5.8500E+02 -5.8788E+02 -5.9072E+02 -5.9352E+02 -5.9625E+02 -5.9892E+02 -6.0150E+02 -6.0398E+02 -6.0633E+02 -6.0854E+02 -6.1058E+02 -6.1243E+02 -6.1406E+02 -6.1544E+02 -6.1656E+02 -6.1739E+02 -6.1792E+02 -6.1814E+02 -6.1804E+02 -6.1761E+02 -6.1686E+02 -6.1579E+02 -6.1442E+02 -6.1276E+02 -6.1083E+02 -6.0865E+02 -6.0624E+02 -6.0363E+02 -6.0085E+02 -5.9793E+02 -5.9489E+02 -5.9177E+02 -5.8858E+02 -5.8537E+02 -5.8214E+02 -5.7894E+02 -5.7579E+02 -5.7270E+02 -5.6971E+02 -5.6682E+02 -5.6407E+02 -5.6147E+02 -5.5902E+02 -5.5675E+02 -5.5466E+02 -5.5275E+02 -5.5103E+02 -5.4950E+02 -5.4816E+02 -5.4699E+02 -5.4599E+02 -5.4515E+02 -5.4446E+02 -5.4391E+02 -5.4347E+02 -5.4313E+02 -5.4289E+02 -5.4272E+02 -5.4262E+02 -5.4257E+02 -5.4256E+02 -5.4259E+02 -5.4264E+02 -5.4271E+02 -5.4280E+02 -5.4290E+02 -5.4300E+02 -5.4312E+02 -5.4324E+02 -5.4336E+02 -5.4350E+02
-5.7972E+02 -5.8049E+02 -5.8114E+02 -5.8168E+02 -5.8217E+02 -5.8257E+02 -5.8300E+02 -5.8337E+02 -5.8366E+02 -5.8387E+02 -5.8401E+02 -5.8407E+02 -5.8404E+02 -5.8391E+02 -5.8368E+02 -5.8334E+02 -5.8289E+02 -5.8233E+02 -5.8164E+02 -5.8084E+02 -5.7991E+02 -5.7885E+02 -5.7766E+02 -5.7635E+02 -5.7492E+02 -5.7336E+02 -5.7168E+02 -5.6989E+02 -5.6800E+02 -5.6602E+02 -5.6395E+02 -5.6180E+02 -5.5959E+02 -5.5733E+02 -5.5503E+02 -5.5269E+02 -5.5034E+02 -5.4797E+02 -5.4559E+02 -5.4322E+02 -5.4085E+02 -5.3850E+02 -5.3616E+02 -5.3383E+02 -5.3153E+02 -5.2924E+02 -5.2696E+02 -5.2470E+02 -5.2244E+02 -5.2020E+02 -5.1796E+02 -5.1573E+02 -5.1350E+02 -5.1127E+02 -5.0904E+02 -5.0682E+02 -5.0461E+02 -5.0242E+02 -5.0025E+02 -4.9812E+02 -4.9604E+02 -4.9402E+02 -4.9209E+02 -4.9026E+02 -4.8856E+02 -4.8701E+02 -4.8563E+02 -4.8444E+02 -4.8346E+02 -4.8272E+02 -4.8222E+02 -4.8199E+02 -4.8203E+02 -4.8235E+02 -4.8295E+02 -4.8384E+02 -4.8500E+02 -4.8644E+02 -4.8814E+02 -4.9009E+02 -4.9228E+02 -4.9468E+02 -4.9729E+02 -5.0008E+02 -5.0304E+02 -5.0614E+02 -5.0937E+02 -5.1270E+02 -5.1613E+02 -5.1963E+02 -5.2319E+02 -5.2678E+02 -5.3040E+02 -5.3403E+02 -5.3765E+02 -5.4126E+02 -5.4484E+02 -5.4838E+02 -5.5188E+02 -5.5532E+02 -5.5871E+02 -5.6203E+02 -5.6530E+02 -5.6850E+02 -5.7165E+02 -5.7475E+02 -5.7779E+02 -5.8078E+02 -5.8373E+02 -5.8664E+02 -5.8950E+02 -5.9231E+02 -5.9507E+02 -5.9777E+02 -6.0040E+02 -6.0294E+02 -6.0537E+02 -6.0767E+02 -6.0982E+02 -6.1179E+02 -6.1357E+02 -6.1512E+02 -6.1643E+02 -6.1746E+02 -6.1821E+02 -6.1866E+02 -6.1879E+02 -6.1861E+02 -6.1810E+02 -6.1727E+02 -6.1614E+02 -6.1471E+02 -6.1299E+02 -6.1101E+02 -6.0878E+02 -6.0634E+02 -6.0371E+02 -6.0091E+02 -5.9797E+02 -5.9493E+02 -5.9180E+02 -5.8862E+02 -5.8541E+02 -5.8219E+02 -5.7901E+02 -5.7587E+02 -5.7280E+02 -5.6983E+02 -5.6696E+02 -5.6423E+02 -5.6165E+02 -5.5923E+02 -5.5698E+02 -5.5490E+02 -5.5302E+02 -5.5132E+02 -5.4981E+02 -5.4849E+02 -5.4734E+02 -5.4636E+02 -5.4554E+02 -5.4486E+02 -5.4432E+02 -5.4389E+02 -5.4357E+02 -5.4333E+02 -5.4317E+02 -5.4307E+02 -5.4302E+02 -5.4302E+02 -5.4304E+02 -5.4308E+02 -5.4315E+02 -5.4323E+02 -5.4332E+02 -5.4341E+02 -5.4351E+02 -5.4361E+02 -5.4372E+02 -5.4384E+02
-5.8231E+02 -5.8311E+02 -5.8378E+02 -5.8434E+02 -5.8484E+02 -5.8526E+02 -5.8571E+02 -5.8609E+02 -5.8639E+02 -5.8661E+02 -5.8676E+02 -5.8682E+02 -5.8679E+02 -5.8666E+02 -5.8643E+02 -5.8609E+02 -5.8564E+02 -5.8508E+02 -5.8439E+02 -5.8358E+02 -5.8264E+02 -5.8158E+02 -5.8039E+02 -5.7907E+02 -5.7762E+02 -5.7605E+02 -5.7436E+02 -5.7256E+02 -5.7065E+02 -5.6864E+02 -5.6654E+02 -5.6437E+02 -5.6213E+02 -5.5983E+02 -5.5749E+02 -5.5510E+02 -5.5269E+02 -5.5027E+02 -5.4783E+02 -5.4539E+02 -5.4296E+02 -5.4053E+02 -5.3811E+02 -5.3571E+02 -5.3331E+02 -5.3094E+02 -5.2857E+02 -5.2622E+02 -5.2388E+02 -5.2154E+02 -5.1921E+02 -5.1688E+02 -5.1456E+02 -5.1224E+02 -5.0992E+02 -5.0761E+02 -5.0530E+02 -5.0302E+02 -5.0077E+02 -4.9856E+02 -4.9641E+02 -4.9433E+02 -4.9234E+02 -4.9046E+02 -4.8873E+02 -4.8715E+02 -4.8575E+02 -4.8456E+02 -4.8360E+02 -4.8287E+02 -4.8241E+02 -4.8222E+02 -4.8232E+02 -4.8270E+02 -4.8337E+02 -4.8433E+02 -4.8557E+02 -4.8708E+02 -4.8886E+02 -4.9088E+02 -4.9314E+02 -4.9562E+02 -4.9829E+02 -5.0114E+02 -5.0416E+02 -5.0731E+02 -5.1059E+02 -5.1398E+02 -5.1745E+02 -5.2100E+02 -5.2460E+02 -5.2824E+02 -5.3189E+02 -5.3556E+02 -5.3922E+02 -5.4287E+02 -5.4648E+02 -5.5005E+02 -5.5357E+02 -5.5704E+02 -5.6045E+02 -5.6379E+02 -5.6707E+02 -5.7028E+02 -5.7343E+02 -5.7652E+02 -5.7956E+02 -5.8254E+02 -5.8547E+02 -5.8836E+02 -5.9119E+02 -5.9398E+02 -5.9670E+02 -5.9936E+02 -6.0194E+02 -6.0443E+02 -6.0680E+02 -6.0904E+02 -6.1112E+02 -6.1302E+02 -6.1472E+02 -6.1619E+02 -6.1740E+02 -6.1835E+02 -6.1901E+02 -6.1936E+02 -6.1941E+02 -6.1913E+02 -6.1854E+02 -6.1764E+02 -6.1643E+02 -6.1493E+02 -6.1316E+02 -6.1113E+02 -6.0886E+02 -6.0638E+02 -6.0372E+02 -6.0091E+02 -5.9796E+02 -5.9491E+02 -5.9178E+02 -5.8861E+02 -5.8541E+02 -5.8221E+02 -5.7905E+02 -5.7593E+02 -5.7289E+02 -5.6994E+02 -5.6710E+02 -5.6440E+02 -5.6184E+02 -5.5945E+02 -5.5722E+02 -5.5518E+02 -5.5332E+02 -5.5165E+02 -5.5017E+02 -5.4886E+02 -5.4774E+02 -5.4678E+02 -5.4597E+02 -5.4531E+02 -5.4478E+02 -5.4436E+02 -5.4405E+02 -5.4382E+02 -5.4366E+02 -5.4356E+02 -5.4351E+02 -5.4350E+02 -5.4352E+02 -5.4356E+02 -5.4361E+02 -5.4368E+02 -5.4375E+02 -5.4383E+02 -5.4391E+02 -5.4400E+02 -5.4409E+02 -5.4418E+02
-5.8489E+02 -5.8572E+02 -5.8642E+02 -5.8701E+02 -5.8753E+02 -5.8796E+02 -5.8844E+02 -5.8883E+02 -5.8915E+02 -5.8939E+02 -5.8955E+02 -5.8963E+02 -5.8961E+02 -5.8949E+02 -5.8926E+02 -5.8892E+02 -5.8848E+02 -5.8791E+02 -5.8722E+02 -5.8640E+02 -5.8546E+02 -5.8439E+02 -5.8318E+02 -5.8185E+02 -5.8039E+02 -5.7880E+02 -5.7710E+02 -5.7527E+02 -5.7334E+02 -5.7131E+02 -5.6919E+02 -5.6698E+02 -5.6470E+02 -5.6237E+02 -5.5998E+02 -5.5755E+02 -5.5508E+02 -5.5260E+02 -5.5010E+02 -5.4760E+02 -5.4509E+02 -5.4259E+02 -5.4009E+02 -5.3761E+02 -5.3513E+02 -5.3267E+02 -5.3022E+02 -5.2777E+02 -5.2534E+02 -5.2291E+02 -5.2048E+02 -5.1806E+02 -5.1564E+02 -5.1322E+02 -5.1081E+02 -5.0840E+02 -5.0601E+02 -5.0364E+02 -5.0131E+02 -4.9902E+02 -4.9680E+02 -4.9465E+02 -4.9261E+02 -4.9070E+02 -4.8893E+02 -4.8733E+02 -4.8592E+02 -4.8474E+02 -4.8378E+02 -4.8309E+02 -4.8266E+02 -4.8252E+02 -4.8266E+02 -4.8310E+02 -4.8384E+02 -4.8487E+02 -4.8618E+02 -4.8776E+02 -4.8961E+02 -4.9170E+02 -4.9403E+02 -4.9657E+02 -4.9930E+02 -5.0222E+02 -5.0529E+02 -5.0850E+02 -5.1183E+02 -5.1526E+02 -5.1879E+02 -5.2238E+02 -5.2602E+02 -5.2970E+02 -5.3341E+02 -5.3712E+02 -5.4082E+02 -5.4450E+02 -5.4815E+02 -5.5176E+02 -5.5532E+02 -5.5882E+02 -5.6225E+02 -5.6561E+02 -5.6890E+02 -5.7213E+02 -5.7528E+02 -5.7837E+02 -5.8140E+02 -5.8438E+02 -5.8729E+02 -5.9015E+02 -5.9296E+02 -5.9571E+02 -5.9839E+02 -6.0101E+02 -6.0353E+02 -6.0596E+02 -6.0827E+02 -6.1043E+02 -6.1244E+02 -6.1426E+02 -6.1587E+02 -6.1724E+02 -6.1836E+02 -6.1921E+02 -6.1977E+02 -6.2003E+02 -6.1998E+02 -6.1961E+02 -6.1894E+02 -6.1795E+02 -6.1667E+02 -6.1510E+02 -6.1326E+02 -6.1118E+02 -6.0887E+02 -6.0637E+02 -6.0368E+02 -6.0085E+02 -5.9790E+02 -5.9485E+02 -5.9173E+02 -5.8856E+02 -5.8538E+02 -5.8221E+02 -5.7907E+02 -5.7598E+02 -5.7297E+02 -5.7005E+02 -5.6725E+02 -5.6459E+02 -5.6206E+02 -5.5970E+02 -5.5751E+02 -5.5550E+02 -5.5367E+02 -5.5203E+02 -5.5057E+02 -5.4929E+02 -5.4819E+02 -5.4725E+02 -5.4646E+02 -5.4582E+02 -5.4530E+02 -5.4489E+02 -5.4458E+02 -5.4436E+02 -5.4420E+02 -5.4410E+02 -5.4405E+02 -5.4403E+02 -5.4403E+02 -5.4406E+02 -5.4410E+02 -5.4415E+02 -5.4421E+02 -5.4426E+02 -5.4433E+02 -5.4439E+02 -5.4445E+02 -5.4452E+02
-5.8746E+02 -5.8833E+02 -5.8905E+02 -5.8967E+02 -5.9022E+02 -5.9068E+02 -5.9118E+02 -5.9160E+02 -5.9194E+02 -5.9221E+02 -5.9238E+02 -5.9248E+02 -5.9248E+02 -5.9237E+02 -5.9215E+02 -5.9183E+02 -5.9138E+02 -5.9082E+02 -5.9012E+02 -5.8931E+02 -5.8836E+02 -5.8727E+02 -5.8606E+02 -5.8471E+02 -5.8324E+02 -5.8163E+02 -5.7990E+02 -5.7806E+02 -5.7610E+02 -5.7404E+02 -5.7188E+02 -5.6964E+02 -5.6733E+02 -5.6494E+02 -5.6251E+02 -5.6003E+02 -5.5751E+02 -5.5497E+02 -5.5241E+02 -5.4984E+02 -5.4726E+02 -5.4468E+02 -5.4211E+02 -5.3954E+02 -5.3698E+02 -5.3443E+02 -5.3189E+02 -5.2935E+02 -5.2682E+02 -5.2430E+02 -5.2178E+02 -5.1926E+02 -5.1674E+02 -5.1422E+02 -5.1172E+02 -5.0922E+02 -5.0674E+02 -5.0428E+02 -5.0187E+02 -4.9951E+02 -4.9722E+02 -4.9502E+02 -4.9293E+02 -4.9097E+02 -4.8918E+02 -4.8756E+02 -4.8615E+02 -4.8497E+02 -4.8404E+02 -4.8337E+02 -4.8298E+02 -4.8288E+02 -4.8308E+02 -4.8358E+02 -4.8438E+02 -4.8547E+02 -4.8684E+02 -4.8849E+02 -4.9040E+02 -4.9256E+02 -4.9495E+02 -4.9754E+02 -5.0034E+02 -5.0330E+02 -5.0642E+02 -5.0968E+02 -5.1306E+02 -5.1655E+02 -5.2012E+02 -5.2376E+02 -5.2745E+02 -5.3118E+02 -5.3493E+02 -5.3868E+02 -5.4243E+02 -5.4616E+02 -5.4986E+02 -5.5351E+02 -5.5710E+02 -5.6063E+02 -5.6409E+02 -5.6748E+02 -5.7080E+02 -5.7403E+02 -5.7720E+02 -5.8029E+02 -5.8331E+02 -5.8627E+02 -5.8917E+02 -5.9201E+02 -5.9479E+02 -5.9750E+02 -6.0014E+02 -6.0270E+02 -6.0517E+02 -6.0753E+02 -6.0976E+02 -6.1185E+02 -6.1377E+02 -6.1549E+02 -6.1700E+02 -6.1828E+02 -6.1930E+02 -6.2004E+02 -6.2050E+02 -6.2065E+02 -6.2050E+02 -6.2003E+02 -6.1927E+02 -6.1819E+02 -6.1683E+02 -6.1520E+02 -6.1330E+02 -6.1117E+02 -6.0883E+02 -6.0629E+02 -6.0359E+02 -6.0074E+02 -5.9779E+02 -5.9474E+02 -5.9164E+02 -5.8849E+02 -5.8534E+02 -5.8220E+02 -5.7909E+02 -5.7604E+02 -5.7307E+02 -5.7019E+02 -5.6743E+02 -5.6481E+02 -5.6233E+02 -5.6001E+02 -5.5785E+02 -5.5588E+02 -5.5409E+02 -5.5248E+02 -5.5105E+02 -5.4979E+02 -5.4871E+02 -5.4779E+02 -5.4702E+02 -5.4639E+02 -5.4588E+02 -5.4549E+02 -5.4518E+02 -5.4496E+02 -5.4480E+02 -5.4469E+02 -5.4463E+02 -5.4460E+02 -5.4459E+02 -5.4460E+02 -5.4462E+02 -5.4465E+02 -5.4468E+02 -5.4472E+02 -5.4475E+02 -5.4479E+02 -5.4483E+02 -5.4486E+02
-5.9003E+02 -5.9093E+02 -5.9169E+02 -5.9234E+02 -5.9292E+02 -5.9341E+02 -5.9394E+02 -5.9439E+02 -5.9476E+02 -5.9505E+02 -5.9526E+02 -5.9538E+02 -5.9539E+02 -5.9531E+02 -5.9511E+02 -5.9479E+02 -5.9436E+02 -5.9380E+02 -5.9311E+02 -5.9229E+02 -5.9133E+02 -5.9024E+02 -5.8902E+02 -5.8766E+02 -5.8616E+02 -5.8453E+02 -5.8278E+02 -5.8091E+02 -5.7892E+02 -5.7683E+02 -5.7464E+02 -5.7236E+02 -5.7000E+02 -5.6758E+02 -5.6509E+02 -5.6256E+02 -5.5999E+02 -5.5739E+02 -5.5476E+02 -5.5212E+02 -5.4947E+02 -5.4682E+02 -5.4416E+02 -5.4151E+02 -5.3887E+02 -5.3623E+02 -5.3359E+02 -5.3096E+02 -5.2834E+02 -5.2571E+02 -5.2309E+02 -5.2048E+02 -5.1786E+02 -5.1525E+02 -5.1265E+02 -5.1006E+02 -5.0749E+02 -5.0495E+02 -5.0246E+02 -5.0003E+02 -4.9768E+02 -4.9542E+02 -4.9329E+02 -4.9130E+02 -4.8949E+02 -4.8786E+02 -4.8646E+02 -4.8529E+02 -4.8438E+02 -4.8374E+02 -4.8339E+02 -4.8334E+02 -4.8358E+02 -4.8414E+02 -4.8499E+02 -4.8614E+02 -4.8757E+02 -4.8928E+02 -4.9125E+02 -4.9346E+02 -4.9590E+02 -4.9855E+02 -5.0139E+02 -5.0440E+02 -5.0757E+02 -5.1088E+02 -5.1430E+02 -5.1783E+02 -5.2145E+02 -5.2513E+02 -5.2887E+02 -5.3265E+02 -5.3645E+02 -5.4026E+02 -5.4406E+02 -5.4784E+02 -5.5158E+02 -5.5528E+02 -5.5891E+02 -5.6248E+02 -5.6598E+02 -5.6940E+02 -5.7273E+02 -5.7599E+02 -5.7916E+02 -5.8226E+02 -5.8528E+02 -5.8823E+02 -5.9111E+02 -5.9392E+02 -5.9666E+02 -5.9933E+02 -6.0192E+02 -6.0442E+02 -6.0683E+02 -6.0911E+02 -6.1127E+02 -6.1326E+02 -6.1509E+02 -6.1671E+02 -6.1812E+02 -6.1929E+02 -6.2019E+02 -6.2083E+02 -6.2117E+02 -6.2121E+02 -6.2095E+02 -6.2039E+02 -6.1953E+02 -6.1837E+02 -6.1693E+02 -6.1523E+02 -6.1327E+02 -6.1110E+02 -6.0871E+02 -6.0615E+02 -6.0343E+02 -6.0058E+02 -5.9763E+02 -5.9460E+02 -5.9151E+02 -5.8840E+02 -5.8528E+02 -5.8218E+02 -5.7911E+02 -5.7611E+02 -5.7318E+02 -5.7036E+02 -5.6765E+02 -5.6507E+02 -5.6264E+02 -5.6037E+02 -5.5826E+02 -5.5633E+02 -5.5458E+02 -5.5300E+02 -5.5161E+02 -5.5038E+02 -5.4933E+02 -5.4843E+02 -5.4767E+02 -5.4705E+02 -5.4655E+02 -5.4616E+02 -5.4585E+02 -5.4562E+02 -5.4546E+02 -5.4534E+02 -5.4526E+02 -5.4521E+02 -5.4519E+02 -5.4518E+02 -5.4517E+02 -5.4518E+02 -5.4518E+02 -5.4519E+02 -5.4519E+02 -5.4520E+02 -5.4520E+02 -5.4519E+02
-5.9259E+02 -5.9353E+02 -5.9432E+02 -5.9500E+02 -5.9562E+02 -5.9615E+02 -5.9671E+02 -5.9720E+02 -5.9760E+02 -5.9793E+02 -5.9816E+02 -5.9831E+02 -5.9835E+02 -5.9829E+02 -5.9811E+02 -5.9782E+02 -5.9739E+02 -5.9685E+02 -5.9616E+02 -5.9534E+02 -5.9439E+02 -5.9329E+02 -5.9205E+02 -5.9068E+02 -5.8916E+02 -5.8751E+02 -5.8574E+02 -5.8383E+02 -5.8182E+02 -5.7969E+02 -5.7746E+02 -5.7514E+02 -5.7274E+02 -5.7026E+02 -5.6773E+02 -5.6514E+02 -5.6251E+02 -5.5985E+02 -5.5716E+02 -5.5445E+02 -5.5172E+02 -5.4899E+02 -5.4626E+02 -5.4352E+02 -5.4079E+02 -5.3806E+02 -5.3533E+02 -5.3260E+02 -5.2988E+02 -5.2716E+02 -5.2444E+02 -5.2172E+02 -5.1901E+02 -5.1630E+02 -5.1360E+02 -5.1092E+02 -5.0827E+02 -5.0565E+02 -5.0309E+02 -5.0059E+02 -4.9818E+02 -4.9588E+02 -4.9372E+02 -4.9170E+02 -4.8987E+02 -4.8825E+02 -4.8685E+02 -4.8569E+02 -4.8481E+02 -4.8421E+02 -4.8390E+02 -4.8389E+02 -4.8419E+02 -4.8479E+02 -4.8570E+02 -4.8690E+02 -4.8838E+02 -4.9014E+02 -4.9216E+02 -4.9441E+02 -4.9690E+02 -4.9959E+02 -5.0247E+02 -5.0553E+02 -5.0873E+02 -5.1208E+02 -5.1555E+02 -5.1912E+02 -5.2278E+02 -5.2652E+02 -5.3031E+02 -5.3413E+02 -5.3799E+02 -5.4185E+02 -5.4570E+02 -5.4953E+02 -5.5332E+02 -5.5707E+02 -5.6075E+02 -5.6436E+02 -5.6789E+02 -5.7134E+02 -5.7471E+02 -5.7798E+02 -5.8117E+02 -5.8427E+02 -5.8729E+02 -5.9023E+02 -5.9309E+02 -5.9587E+02 -5.9858E+02 -6.0120E+02 -6.0374E+02 -6.0617E+02 -6.0850E+02 -6.1071E+02 -6.1277E+02 -6.1467E+02 -6.1640E+02 -6.1791E+02 -6.1920E+02 -6.2025E+02 -6.2104E+02 -6.2155E+02 -6.2178E+02 -6.2170E+02 -6.2133E+02 -6.2067E+02 -6.1971E+02 -6.1846E+02 -6.1695E+02 -6.1518E+02 -6.1317E+02 -6.1095E+02 -6.0853E+02 -6.0595E+02 -6.0322E+02 -6.0037E+02 -5.9743E+02 -5.9442E+02 -5.9137E+02 -5.8829E+02 -5.8521E+02 -5.8216E+02 -5.7915E+02 -5.7620E+02 -5.7333E+02 -5.7057E+02 -5.6792E+02 -5.6540E+02 -5.6303E+02 -5.6081E+02 -5.5875E+02 -5.5687E+02 -5.5516E+02 -5.5363E+02 -5.5226E+02 -5.5107E+02 -5.5004E+02 -5.4916E+02 -5.4842E+02 -5.4781E+02 -5.4731E+02 -5.4691E+02 -5.4660E+02 -5.4636E+02 -5.4618E+02 -5.4605E+02 -5.4596E+02 -5.4588E+02 -5.4583E+02 -5.4579E+02 -5.4576E+02 -5.4573E+02 -5.4570E+02 -5.4567E+02 -5.4564E+02 -5.4561E+02 -5.4557E+02 -5.4552E+02
-5.9515E+02 -5.9611E+02 -5.9694E+02 -5.9767E+02 -5.9832E+02 -5.9889E+02 -5.9949E+02 -6.0001E+02 -6.0045E+02 -6.0081E+02 -6.0109E+02 -6.0127E+02 -6.0135E+02 -6.0131E+02 -6.0116E+02 -6.0089E+02 -6.0048E+02 -5.9995E+02 -5.9928E+02 -5.9846E+02 -5.9751E+02 -5.9641E+02 -5.9516E+02 -5.9377E+02 -5.9224E+02 -5.9057E+02 -5.8877E+02 -5.8684E+02 -5.8479E+02 -5.8262E+02 -5.8035E+02 -5.7799E+02 -5.7554E+02 -5.7302E+02 -5.7043E+02 -5.6778E+02 -5.6509E+02 -5.6236E+02 -5.5960E+02 -5.5682E+02 -5.5402E+02 -5.5121E+02 -5.4839E+02 -5.4557E+02 -5.4275E+02 -5.3992E+02 -5.3710E+02 -5.3428E+02 -5.3145E+02 -5.2863E+02 -5.2581E+02 -5.2299E+02 -5.2018E+02 -5.1738E+02 -5.1458E+02 -5.1182E+02 -5.0908E+02 -5.0639E+02 -5.0376E+02 -5.0120E+02 -4.9874E+02 -4.9641E+02 -4.9421E+02 -4.9218E+02 -4.9035E+02 -4.8873E+02 -4.8734E+02 -4.8621E+02 -4.8536E+02 -4.8479E+02 -4.8452E+02 -4.8456E+02 -4.8491E+02 -4.8556E+02 -4.8651E+02 -4.8776E+02 -4.8929E+02 -4.9109E+02 -4.9314E+02 -4.9544E+02 -4.9796E+02 -5.0068E+02 -5.0360E+02 -5.0669E+02 -5.0993E+02 -5.1331E+02 -5.1682E+02 -5.2043E+02 -5.2414E+02 -5.2791E+02 -5.3175E+02 -5.3563E+02 -5.3953E+02 -5.4345E+02 -5.4735E+02 -5.5124E+02 -5.5508E+02 -5.5888E+02 -5.6261E+02 -5.6626E+02 -5.6984E+02 -5.7332E+02 -5.7672E+02 -5.8001E+02 -5.8321E+02 -5.8632E+02 -5.8934E+02 -5.9226E+02 -5.9510E+02 -5.9786E+02 -6.0052E+02 -6.0309E+02 -6.0557E+02 -6.0794E+02 -6.1019E+02 -6.1230E+02 -6.1427E+02 -6.1607E+02 -6.1767E+02 -6.1907E+02 -6.2024E+02 -6.2116E+02 -6.2182E+02 -6.2221E+02 -6.2231E+02 -6.2212E+02 -6.2163E+02 -6.2086E+02 -6.1980E+02 -6.1847E+02 -6.1687E+02 -6.1504E+02 -6.1298E+02 -6.1072E+02 -6.0828E+02 -6.0568E+02 -6.0296E+02 -6.0012E+02 -5.9720E+02 -5.9422E+02 -5.9120E+02 -5.8817E+02 -5.8515E+02 -5.8215E+02 -5.7920E+02 -5.7632E+02 -5.7352E+02 -5.7083E+02 -5.6825E+02 -5.6580E+02 -5.6349E+02 -5.6133E+02 -5.5934E+02 -5.5750E+02 -5.5584E+02 -5.5435E+02 -5.5302E+02 -5.5186E+02 -5.5085E+02 -5.4999E+02 -5.4926E+02 -5.4865E+02 -5.4816E+02 -5.4776E+02 -5.4744E+02 -5.4718E+02 -5.4698E+02 -5.4683E+02 -5.4671E+02 -5.4660E+02 -5.4652E+02 -5.4645E+02 -5.4638E+02 -5.4631E+02 -5.4624E+02 -5.4617E+02 -5.4610E+02 -5.4603E+02 -5.4594E+02 -5.4583E+02
-5.9770E+02 -5.9870E+02 -5.9956E+02 -6.0032E+02 -6.0102E+02 -6.0162E+02 -6.0226E+02 -6.0283E+02 -6.0331E+02 -6.0371E+02 -6.0402E+02 -6.0424E+02 -6.0436E+02 -6.0436E+02 -6.0424E+02 -6.0399E+02 -6.0361E+02 -6.0310E+02 -6.0244E+02 -6.0164E+02 -6.0069E+02 -5.9959E+02 -5.9834E+02 -5.9694E+02 -5.9539E+02 -5.9370E+02 -5.9188E+02 -5.8992E+02 -5.8783E+02 -5.8563E+02 -5.8332E+02 -5.8091E+02 -5.7841E+02 -5.7584E+02 -5.7319E+02 -5.7048E+02 -5.6773E+02 -5.6493E+02 -5.6210E+02 -5.5924E+02 -5.5637E+02 -5.5347E+02 -5.5057E+02 -5.4766E+02 -5.4474E+02 -5.4182E+02 -5.3890E+02 -5.3598E+02 -5.3305E+02 -5.3013E+02 -5.2721E+02 -5.2429E+02 -5.2138E+02 -5.1848E+02 -5.1560E+02 -5.1275E+02 -5.0993E+02 -5.0717E+02 -5.0448E+02 -5.0187E+02 -4.9937E+02 -4.9701E+02 -4.9480E+02 -4.9276E+02 -4.9093E+02 -4.8932E+02 -4.8796E+02 -4.8686E+02 -4.8604E+02 -4.8551E+02 -4.8529E+02 -4.8537E+02 -4.8576E+02 -4.8646E+02 -4.8745E+02 -4.8874E+02 -4.9030E+02 -4.9213E+02 -4.9422E+02 -4.9654E+02 -4.9909E+02 -5.0184E+02 -5.0478E+02 -5.0790E+02 -5.1117E+02 -5.1458E+02 -5.1812E+02 -5.2177E+02 -5.2552E+02 -5.2934E+02 -5.3322E+02 -5.3715E+02 -5.4110E+02 -5.4507E+02 -5.4903E+02 -5.5297E+02 -5.5687E+02 -5.6071E+02 -5.6449E+02 -5.6820E+02 -5.7181E+02 -5.7533E+02 -5.7875E+02 -5.8207E+02 -5.8529E+02 -5.8840E+02 -5.9141E+02 -5.9433E+02 -5.9714E+02 -5.9986E+02 -6.0248E+02 -6.0500E+02 -6.0741E+02 -6.0970E+02 -6.1186E+02 -6.1388E+02 -6.1574E+02 -6.1742E+02 -6.1891E+02 -6.2018E+02 -6.2122E+02 -6.2201E+02 -6.2253E+02 -6.2278E+02 -6.2275E+02 -6.2244E+02 -6.2183E+02 -6.2095E+02 -6.1980E+02 -6.1838E+02 -6.1671E+02 -6.1482E+02 -6.1271E+02 -6.1042E+02 -6.0796E+02 -6.0536E+02 -6.0263E+02 -5.9982E+02 -5.9693E+02 -5.9399E+02 -5.9102E+02 -5.8805E+02 -5.8509E+02 -5.8216E+02 -5.7928E+02 -5.7648E+02 -5.7376E+02 -5.7114E+02 -5.6864E+02 -5.6627E+02 -5.6403E+02 -5.6194E+02 -5.6001E+02 -5.5824E+02 -5.5663E+02 -5.5518E+02 -5.5389E+02 -5.5276E+02 -5.5178E+02 -5.5093E+02 -5.5021E+02 -5.4960E+02 -5.4910E+02 -5.4869E+02 -5.4835E+02 -5.4808E+02 -5.4785E+02 -5.4767E+02 -5.4751E+02 -5.4737E+02 -5.4725E+02 -5.4714E+02 -5.4702E+02 -5.4691E+02 -5.4679E+02 -5.4668E+02 -5.4656E+02 -5.4644E+02 -5.4629E+02 -5.4613E+02
-6.0025E+02 -6.0127E+02 -6.0217E+02 -6.0297E+02 -6.0370E+02 -6.0435E+02 -6.0503E+02 -6.0564E+02 -6.0616E+02 -6.0660E+02 -6.0696E+02 -6.0722E+02 -6.0737E+02 -6.0741E+02 -6.0733E+02 -6.0711E+02 -6.0677E+02 -6.0628E+02 -6.0564E+02 -6.0485E+02 -6.0391E+02 -6.0282E+02 -6.0157E+02 -6.0016E+02 -5.9861E+02 -5.9690E+02 -5.9505E+02 -5.9306E+02 -5.9095E+02 -5.8871E+02 -5.8635E+02 -5.8390E+02 -5.8135E+02 -5.7872E+02 -5.7601E+02 -5.7325E+02 -5.7042E+02 -5.6756E+02 -5.6465E+02 -5.6172E+02 -5.5876E+02 -5.5578E+02 -5.5279E+02 -5.4979E+02 -5.4677E+02 -5.4376E+02 -5.4074E+02 -5.3771E+02 -5.3469E+02 -5.3166E+02 -5.2863E+02 -5.2562E+02 -5.2261E+02 -5.1962E+02 -5.1665E+02 -5.1371E+02 -5.1083E+02 -5.0800E+02 -5.0526E+02 -5.0261E+02 -5.0008E+02 -4.9770E+02 -4.9548E+02 -4.9345E+02 -4.9163E+02 -4.9004E+02 -4.8871E+02 -4.8765E+02 -4.8687E+02 -4.8639E+02 -4.8621E+02 -4.8633E+02 -4.8677E+02 -4.8750E+02 -4.8853E+02 -4.8985E+02 -4.9145E+02 -4.9330E+02 -4.9541E+02 -4.9776E+02 -5.0032E+02 -5.0309E+02 -5.0605E+02 -5.0918E+02 -5.1248E+02 -5.1591E+02 -5.1948E+02 -5.2316E+02 -5.2694E+02 -5.3080E+02 -5.3473E+02 -5.3870E+02 -5.4271E+02 -5.4672E+02 -5.5074E+02 -5.5473E+02 -5.5868E+02 -5.6258E+02 -5.6641E+02 -5.7016E+02 -5.7381E+02 -5.7737E+02 -5.8082E+02 -5.8416E+02 -5.8739E+02 -5.9050E+02 -5.9351E+02 -5.9641E+02 -5.9920E+02 -6.0188E+02 -6.0445E+02 -6.0690E+02 -6.0924E+02 -6.1145E+02 -6.1352E+02 -6.1543E+02 -6.1717E+02 -6.1873E+02 -6.2009E+02 -6.2122E+02 -6.2212E+02 -6.2277E+02 -6.2315E+02 -6.2327E+02 -6.2310E+02 -6.2266E+02 -6.2194E+02 -6.2094E+02 -6.1969E+02 -6.1819E+02 -6.1645E+02 -6.1450E+02 -6.1236E+02 -6.1004E+02 -6.0757E+02 -6.0497E+02 -6.0226E+02 -5.9947E+02 -5.9662E+02 -5.9373E+02 -5.9083E+02 -5.8792E+02 -5.8503E+02 -5.8219E+02 -5.7940E+02 -5.7668E+02 -5.7405E+02 -5.7152E+02 -5.6910E+02 -5.6681E+02 -5.6466E+02 -5.6265E+02 -5.6079E+02 -5.5908E+02 -5.5752E+02 -5.5612E+02 -5.5487E+02 -5.5377E+02 -5.5281E+02 -5.5197E+02 -5.5126E+02 -5.5065E+02 -5.5014E+02 -5.4971E+02 -5.4935E+02 -5.4904E+02 -5.4879E+02 -5.4857E+02 -5.4837E+02 -5.4819E+02 -5.4802E+02 -5.4786E+02 -5.4770E+02 -5.4753E+02 -5.4736E+02 -5.4719E+02 -5.4702E+02 -5.4684E+02 -5.4664E+02 -5.4641E+02
-6.0280E+02 -6.0384E+02 -6.0477E+02 -6.0560E+02 -6.0638E+02 -6.0706E+02 -6.0778E+02 -6.0843E+02 -6.0899E+02 -6.0948E+02 -6.0988E+02 -6.1018E+02 -6.1038E+02 -6.1046E+02 -6.1041E+02 -6.1024E+02 -6.0993E+02 -6.0947E+02 -6.0886E+02 -6.0809E+02 -6.0717E+02 -6.0608E+02 -6.0484E+02 -6.0343E+02 -6.0187E+02 -6.0015E+02 -5.9828E+02 -5.9627E+02 -5.9412E+02 -5.9185E+02 -5.8945E+02 -5.8695E+02 -5.8435E+02 -5.8166E+02 -5.7890E+02 -5.7607E+02 -5.7318E+02 -5.7023E+02 -5.6725E+02 -5.6424E+02 -5.6119E+02 -5.5813E+02 -5.5505E+02 -5.5195E+02 -5.4884E+02 -5.4572E+02 -5.4260E+02 -5.3947E+02 -5.3634E+02 -5.3321E+02 -5.3009E+02 -5.2697E+02 -5.2387E+02 -5.2078E+02 -5.1773E+02 -5.1472E+02 -5.1177E+02 -5.0889E+02 -5.0610E+02 -5.0343E+02 -5.0088E+02 -4.9849E+02 -4.9627E+02 -4.9426E+02 -4.9246E+02 -4.9091E+02 -4.8962E+02 -4.8860E+02 -4.8787E+02 -4.8743E+02 -4.8730E+02 -4.8747E+02 -4.8794E+02 -4.8871E+02 -4.8978E+02 -4.9112E+02 -4.9274E+02 -4.9462E+02 -4.9674E+02 -4.9909E+02 -5.0167E+02 -5.0445E+02 -5.0741E+02 -5.1056E+02 -5.1387E+02 -5.1732E+02 -5.2091E+02 -5.2462E+02 -5.2843E+02 -5.3232E+02 -5.3629E+02 -5.4031E+02 -5.4436E+02 -5.4843E+02 -5.5249E+02 -5.5654E+02 -5.6054E+02 -5.6449E+02 -5.6836E+02 -5.7215E+02 -5.7585E+02 -5.7944E+02 -5.8291E+02 -5.8627E+02 -5.8951E+02 -5.9263E+02 -5.9562E+02 -5.9850E+02 -6.0126E+02 -6.0389E+02 -6.0641E+02 -6.0880E+02 -6.1106E+02 -6.1317E+02 -6.1514E+02 -6.1694E+02 -6.1856E+02 -6.1999E+02 -6.2120E+02 -6.2219E+02 -6.2295E+02 -6.2344E+02 -6.2368E+02 -6.2365E+02 -6.2335E+02 -6.2277E+02 -6.2193E+02 -6.2083E+02 -6.1948E+02 -6.1790E+02 -6.1609E+02 -6.1409E+02 -6.1191E+02 -6.0958E+02 -6.0710E+02 -6.0451E+02 -6.0183E+02 -5.9908E+02 -5.9628E+02 -5.9346E+02 -5.9062E+02 -5.8779E+02 -5.8499E+02 -5.8224E+02 -5.7954E+02 -5.7692E+02 -5.7439E+02 -5.7196E+02 -5.6964E+02 -5.6744E+02 -5.6537E+02 -5.6344E+02 -5.6166E+02 -5.6002E+02 -5.5852E+02 -5.5717E+02 -5.5596E+02 -5.5488E+02 -5.5394E+02 -5.5311E+02 -5.5240E+02 -5.5178E+02 -5.5126E+02 -5.5080E+02 -5.5041E+02 -5.5008E+02 -5.4978E+02 -5.4951E+02 -5.4927E+02 -5.4904E+02 -5.4882E+02 -5.4860E+02 -5.4838E+02 -5.4816E+02 -5.4793E+02 -5.4771E+02 -5.4747E+02 -5.4723E+02 -5.4696E+02 -5.4667E+02
